6.99745 9.29892 -1.11136
6.95322 9.41733 -1.12643
6.74883 10.0896 -1.2097
6.92601 9.62604 -1.13942
7.00279 9.3942 -1.11644
6.75154 10.2286 -1.23757
6.99744 8.94946 -1.19938
7.00572 8.98337 -1.163
7.02719 9.37631 -1.1198
6.98811 9.68188 -1.1363
6.84085 10.145 -1.21264
6.94936 8.9408 -1.24161
7.08592 9.18546 -1.12313
7.09457 9.24026 -1.11291
7.08408 9.33511 -1.11555
7.03499 9.47977 -1.13591
7.08945 9.53787 -1.1272
7.04344 9.74759 -1.14797
6.9875 9.94003 -1.17781
6.88896 10.2368 -1.22721
7.09389 9.13876 -1.14604
7.09267 9.4361 -1.13678
7.09142 9.64066 -1.1386
7.14221 9.14975 -1.15329
7.12936 9.32336 -1.12171
7.10231 9.50949 -1.12869
7.14723 9.24734 -1.11681
7.13417 9.49414 -1.12636
7.03471 9.85654 -1.157
7.04195 10.0028 -1.17173
6.95052 10.1771 -1.21109
6.98573 8.94507 -1.28118
7.15903 9.24191 -1.13137
7.14169 9.30142 -1.1332
7.15086 9.59589 -1.1276
7.14526 9.40118 -1.13755
7.14487 9.68652 -1.13506
7.13651 9.09299 -1.16495
7.09612 9.94321 -1.15845
7.00613 8.99088 -1.25643
6.84563 9.20349 -1.39912
7.13789 9.89227 -1.14818
7.08621 9.0993 -1.2018
7.03816 10.2439 -1.22429
7.04477 8.91846 -1.26645
7.2339 9.52777 -1.12695
7.1776 9.87512 -1.151
7.02881 9.01135 -1.2936
7.23793 9.64517 -1.14334
7.1689 9.9964 -1.16502
7.16466 10.1127 -1.16531
7.03963 8.90216 -1.29988
6.94243 9.06726 -1.36704
6.1078 9.70215 -1.95509
7.24551 9.28503 -1.14085
7.1786 9.99234 -1.17102
7.13405 10.1596 -1.2071
6.91481 9.08972 -1.4072
6.50534 9.53391 -1.68898
7.19003 9.99243 -1.16418
7.09267 10.3336 -1.24133
6.53511 9.53125 -1.70333
7.24112 9.9361 -1.15862
7.24707 9.20355 -1.18539
7.29228 9.34448 -1.14362
7.29845 9.58667 -1.13969
6.2007 9.64993 -1.96053
7.18198 9.16498 -1.22485
7.30653 9.49918 -1.10921
7.60767 9.46402 -1.33644
7.28125 10.1211 -1.14062
6.59311 9.60431 -1.69024
7.3175 9.66574 -1.12873
6.85414 9.13846 -1.49351
7.30116 9.25912 -1.1952
7.34749 9.45218 -1.13616
7.33865 9.54944 -1.14097
7.22591 10.2125 -1.22074
7.08365 8.93765 -1.34065
7.33334 9.31168 -1.14928
7.38509 9.52762 -1.13071
7.06453 8.93771 -1.3732
7.26271 10.3046 -1.22187
6.89752 9.13129 -1.53498
7.35812 9.31049 -1.18592
7.35213 10.0954 -1.18165
6.1902 9.93494 -2.09909
7.40704 9.70523 -1.13561
7.33092 10.237 -1.20746
6.5264 9.47449 -1.8487
7.34184 9.3208 -1.20213
7.45163 9.49484 -1.14045
6.50507 9.59802 -1.87454
7.39769 9.35297 -1.18937
7.49258 9.55194 -1.14548
7.36331 10.2321 -1.24616
6.5376 9.48505 -1.90408
7.37639 9.30545 -1.1977
7.31734 10.3026 -1.29736
6.51364 9.39368 -1.91292
7.37947 9.31287 -1.24033
7.48909 9.8544 -1.16119
6.9677 9.01959 -1.55021
7.34103 10.2789 -1.29205
7.39536 10.2118 -1.25874
7.43074 10.2876 -1.23362
7.39218 10.4775 -1.27204
7.49614 9.85504 -1.17289
6.98485 9.01498 -1.561
7.41591 10.4494 -1.25904
7.42346 10.4477 -1.27196
6.1996 9.8511 -2.23787
6.40602 9.94232 -2.08365
7.50075 9.45212 -1.18793
7.49347 10.2208 -1.21825
7.44386 10.426 -1.26838
6.16818 9.87857 -2.28006
7.49928 9.47461 -1.18457
6.14127 9.78583 -2.34287
6.44072 9.92465 -2.0853
7.54393 9.52811 -1.17268
7.48537 10.3809 -1.25991
7.58873 9.9892 -1.18024
6.46437 9.91257 -2.08659
7.40474 9.31348 -1.28315
7.52609 10.3357 -1.2504
6.36058 9.8775 -2.18434
6.49834 9.89456 -2.08669
6.50365 10.0038 -2.09145
6.54201 9.74997 -2.06906
7.44818 9.30478 -1.29645
7.51152 9.40591 -1.25034
7.6131 9.75986 -1.17384
7.6465 9.9451 -1.17952
6.53346 9.87579 -2.08631
6.22966 9.87222 -2.35948
6.5786 9.73013 -2.06521
7.48958 9.34653 -1.29984
7.6391 9.56351 -1.20207
6.20834 9.76804 -2.39101
6.23186 9.87714 -2.38041
6.59915 9.71817 -2.06058
7.65788 9.63226 -1.18099
7.6508 10.2054 -1.23394
6.25034 9.86838 -2.38103
6.59082 9.69888 -2.07597
7.54514 9.39413 -1.2762
7.68925 10.0292 -1.19884
6.27512 9.85669 -2.38248
7.09322 9.83948 -1.97491
6.28526 9.73087 -2.3857
6.59677 9.94901 -2.1048
7.7112 9.79111 -1.19237
7.49127 9.28769 -1.34924
7.27708 8.95059 -1.48059
7.46326 9.30481 -1.35777
7.59444 9.45078 -1.28221
6.73721 9.53238 -2.03687
7.25552 8.9028 -1.53497
6.74686 9.64856 -2.06171
7.51064 9.36023 -1.35535
7.71222 9.81241 -1.23253
6.74471 9.79184 -2.08907
6.70995 9.90555 -2.11535
6.76596 9.51801 -2.03697
7.58835 9.38934 -1.33728
7.33389 9.01096 -1.50958
7.29065 8.89371 -1.55114
7.53261 9.54724 -1.4117
7.75691 9.67191 -1.22681
7.76671 9.76071 -1.22331
7.81641 9.91376 -1.20275
7.79843 9.73813 -1.23187
7.34445 8.95007 -1.55064
7.41054 9.12961 -1.50158
6.81572 9.84183 -2.11073
6.78616 10.1263 -2.18321
7.48569 9.64151 -1.5032
7.62422 9.55661 -1.36723
7.42531 9.11951 -1.49367
7.57664 9.61874 -1.43018
7.30157 8.89111 -1.59542
6.93007 9.88141 -2.04807
7.57484 9.62531 -1.44245
7.84824 9.90991 -1.24502
7.49591 9.16333 -1.49863
7.28294 9.75677 -1.73125
5.99524 8.28143 -1.57954
7.48622 9.18069 -1.50167
7.50458 9.24338 -1.45359
6.90508 10.0292 -2.1248
7.35561 8.9397 -1.59535
7.44333 9.04544 -1.55809
7.54054 9.22128 -1.48653
7.58623 9.52463 -1.46009
7.46576 9.09668 -1.53082
7.37209 9.67642 -1.70493
7.65144 9.46646 -1.41779
7.39687 9.64532 -1.71273
7.54857 9.29065 -1.49553
7.24173 9.73636 -1.83709
7.42241 8.98538 -1.59748
7.4673 9.58783 -1.64156
7.35873 8.93402 -1.64514
7.27657 9.6925 -1.83773
7.87613 9.70975 -1.31394
7.63283 9.32092 -1.46563
7.37895 8.94479 -1.6507
7.47572 9.03644 -1.5924
7.56844 9.21149 -1.52544
7.42708 8.99673 -1.65329
7.3889 8.94327 -1.69335
7.5204 9.08661 -1.56771
7.83913 9.59158 -1.39287
7.93764 9.75012 -1.29963
7.73799 9.43863 -1.45201
7.94119 9.78036 -1.34838
7.78938 9.48972 -1.44698
7.48085 9.04376 -1.6422
7.91238 10.2179 -1.4551
7.8806 10.4364 -1.52987
7.65054 9.24747 -1.53846
7.80977 9.5386 -1.43182
7.34908 8.89517 -1.74265
7.57532 9.13684 -1.56851
7.59056 9.13641 -1.60231
7.5477 9.09375 -1.64477
7.75404 9.35382 -1.53641
7.60081 9.14651 -1.64146
7.37939 8.87845 -1.76223
7.6441 9.19595 -1.59947
7.37723 8.89493 -1.79626
7.6862 9.24979 -1.59996
7.8019 9.40884 -1.52934
7.79749 9.43832 -1.50401
7.39241 8.93576 -1.79192
7.55814 9.10226 -1.6883
7.48038 9.00168 -1.75024
7.82849 9.46686 -1.51316
7.43353 8.95337 -1.79398
8.01392 10.1535 -1.5134
7.9744 9.70395 -1.45641
7.38603 8.89688 -1.84277
7.85385 9.45645 -1.53461
7.49448 8.99872 -1.79311
7.79555 9.35223 -1.59538
7.44371 8.95404 -1.84237
7.53354 9.05679 -1.75233
7.56131 9.10352 -1.72849
7.82751 9.40665 -1.5536
7.62279 9.15225 -1.69844
8.036 9.75397 -1.45739
8.06216 10.1097 -1.5223
7.83522 9.40054 -1.58764
7.6501 9.18692 -1.69519
8.06137 9.85403 -1.48586
7.50462 9.00632 -1.83638
7.88103 9.44931 -1.56776
7.68866 9.20599 -1.69057
7.8069 9.35184 -1.64344
7.99762 9.62762 -1.53853
7.76532 9.30145 -1.67049
8.04604 9.689 -1.544
7.97241 9.56195 -1.56134
7.94612 10.487 -1.89854
7.38708 8.905 -1.99896
8.08397 9.75687 -1.51326
7.84068 9.3515 -1.64962
7.8745 9.39865 -1.6593
7.89964 9.43253 -1.64305
7.44014 8.95941 -1.98883
8.11864 9.83298 -1.54266
7.54736 9.04095 -1.88892
7.52132 9.00168 -1.93986
7.67781 9.15439 -1.80103
7.71182 9.1907 -1.78281
7.40138 8.90588 -2.03482
7.45134 8.97296 -2.00658
8.1259 9.85291 -1.58752
8.13956 9.9458 -1.59514
7.64114 9.1105 -1.84955
7.8988 9.3959 -1.70046
8.12029 9.75101 -1.56474
7.79597 9.24362 -1.79092
7.86078 9.34277 -1.72823
8.12741 9.74249 -1.58769
7.53296 9.00827 -1.99948
8.05495 9.6304 -1.64417
7.43428 8.89468 -2.04961
8.13644 10.0224 -1.68985
7.58513 9.05438 -1.94728
7.48404 8.95883 -2.05033
7.69344 9.14597 -1.88047
7.85165 9.30023 -1.79204
8.13504 10.0746 -1.76893
7.75981 9.28168 -1.9063
7.47745 8.97644 -2.14605
7.49652 9.25388 -2.20541
8.14301 9.7045 -1.70074
8.16066 9.90884 -1.73666
7.53604 9.0148 -2.07865
7.59846 9.05289 -2.04005
7.8326 9.32831 -1.89923
7.42892 8.91486 -2.2038
8.1761 9.76077 -1.70155
7.48218 8.96371 -2.14935
8.15547 10.1043 -1.84742
7.89333 9.34329 -1.83647
7.54442 9.0275 -2.14699
8.17384 10.0744 -1.82985
7.53818 9.01132 -2.13714
7.89079 9.36459 -1.89185
7.70854 9.17548 -2.04153
7.85519 9.32474 -1.93957
7.70641 9.15701 -2.0284
7.64993 9.12833 -2.0921
7.44046 8.93704 -2.27284
7.4982 8.98697 -2.23868
7.75961 9.23645 -2.04694
7.97935 9.38657 -1.83861
7.36316 8.97672 -2.37869
8.22952 9.87946 -1.80042
7.67921 9.11624 -2.1009
7.71013 9.18762 -2.09658
7.95096 9.43527 -1.90962
8.23695 10.0318 -1.86338
7.85387 9.33585 -1.9822
7.92146 9.36777 -1.94164
7.8119 9.28906 -2.03164
7.94205 9.37698 -1.94095
8.06839 9.50171 -1.83183
7.76598 9.24658 -2.09484
8.077 9.50418 -1.84919
8.17723 9.71429 -1.81813
7.70824 9.1987 -2.13805
7.82503 9.2955 -2.04691
7.55479 9.04388 -2.24677
7.98222 9.4288 -1.95195
8.03941 9.45306 -1.89142
7.73355 9.19879 -2.14784
7.75294 9.28525 -2.15714
7.83028 9.30295 -2.09555
7.84593 9.38818 -2.09623
7.69621 9.13968 -2.19645
7.74248 9.24384 -2.15353
8.27951 9.85977 -1.84995
7.74318 9.20297 -2.19905
7.99857 9.41202 -1.99102
8.00835 9.53494 -2.03065
7.90306 9.44266 -2.11054
7.71729 9.21466 -2.23206
7.79063 9.25067 -2.20508
7.92307 9.42014 -2.08922
7.70697 9.14493 -2.2423
7.74348 9.19656 -2.23846
8.1149 9.53378 -1.99143
8.27451 9.78851 -1.9184
7.71655 9.12848 -2.27631
7.80064 9.25662 -2.24678
7.93687 9.3826 -2.15164
7.76221 9.31091 -2.34651
8.049 9.43942 -2.08961
8.24147 9.92969 -2.11297
7.79755 9.24554 -2.3035
7.87871 9.30685 -2.25278
7.91049 9.37726 -2.24062
7.96507 9.42175 -2.19047
8.00191 9.63742 -2.27702
7.94426 9.36563 -2.28677
7.99017 9.40424 -2.24987
8.07706 9.43649 -2.19238
7.84576 9.24094 -2.38681
8.26108 9.82236 -2.17316
7.94624 9.37338 -2.34127
8.00107 9.40161 -2.28769
8.23743 9.73318 -2.18594
8.1611 9.74103 -2.30391
7.89816 9.28864 -2.3919
7.88968 9.2569 -2.40966
8.03784 9.40271 -2.30623
8.06978 9.48669 -2.31618
7.83365 9.41406 -2.06517
8.04549 9.41785 -2.37131
6.49153 8.30957 -1.56599
7.46725 9.4223 -1.17912
5.78107 7.60379 -1.8117
7.12527 9.17767 -1.10773
6.05965 9.40707 -1.24256
5.08563 7.88956 -1.71956
6.84154 9.02924 -1.35582
5.89171 7.66034 -1.84893
6.94508 8.5343 -1.84448
6.41397 8.12912 -1.83691
7.03481 10.041 -1.17636
5.38364 8.07742 -1.64553
6.4834 8.17746 -1.94738
6.14162 9.35602 -1.22652
5.04709 7.55505 -1.94632
5.90614 7.70294 -2.3419
6.84767 9.74811 -1.14919
6.31009 9.97876 -2.28995
5.33546 8.8345 -1.6644
5.9919 7.79599 -1.79931
7.9068 9.77991 -1.29745
4.48694 8.20819 -2.12415
6.80861 8.63055 -1.5555
5.30403 8.8403 -1.66327
5.27809 8.84683 -1.67472
5.25658 8.99304 -1.69463
5.2713 9.09888 -1.70826
5.3546 9.17136 -1.684
5.63364 9.31363 -1.49249
5.94029 9.27872 -1.28687
5.91837 9.41055 -1.28834
5.59055 9.33917 -1.55114
5.99713 9.24573 -1.26816
7.16309 9.46906 -1.11792
6.05351 9.1088 -1.26488
6.05605 9.21402 -1.25296
6.0461 9.30093 -1.24946
5.96483 9.61203 -1.28739
5.44131 9.24319 -1.69286
6.09521 9.28256 -1.23947
6.1156 9.3688 -1.2187
6.09395 9.49414 -1.22929
6.14052 9.05801 -1.237
6.15071 9.14108 -1.22884
6.12834 9.49066 -1.23196
6.19749 9.11093 -1.22122
6.19887 9.33994 -1.21053
6.15735 9.44644 -1.22704
6.13974 9.58273 -1.22863
6.10262 9.74615 -1.2535
6.25969 9.15302 -1.18605
6.25435 8.9791 -1.21577
6.29195 9.14258 -1.18868
6.28583 9.03705 -1.20845
6.2188 9.64096 -1.21622
6.30125 8.95145 -1.21132
6.32333 9.1265 -1.19041
6.23247 9.62064 -1.20752
6.34621 9.09329 -1.1861
6.33836 9.2009 -1.17542
6.20421 9.80832 -1.24341
6.35365 9.30197 -1.17595
6.35594 9.4024 -1.16755
6.23505 9.76312 -1.23803
6.39096 9.00082 -1.19352
6.38269 9.17627 -1.17047
6.40446 9.13849 -1.16343
6.39427 8.89615 -1.19837
6.41847 8.96304 -1.17449
6.45009 9.04449 -1.16349
6.40456 9.25327 -1.16843
6.43687 9.33185 -1.14865
6.30681 9.70572 -1.23463
6.31267 9.81717 -1.21897
6.45761 9.2449 -1.15849
6.43073 9.46063 -1.17128
6.44617 8.77545 -1.19262
6.47334 8.92819 -1.168
6.45863 9.4429 -1.15476
6.42776 8.68439 -1.23378
6.44838 8.7478 -1.18932
6.452 8.8508 -1.19218
6.5396 9.08792 -1.15528
6.54205 9.15247 -1.14649
6.48734 8.69595 -1.19855
6.49074 8.84204 -1.19804
6.55075 9.05554 -1.14396
6.54741 8.88129 -1.16042
6.53854 9.48581 -1.14337
6.43271 9.98206 -1.22539
6.58229 9.03958 -1.15181
6.58333 9.13699 -1.1298
6.49905 8.68774 -1.22235
6.60051 8.94122 -1.14855
6.55052 9.71402 -1.1679
6.46594 8.6167 -1.25127
6.59169 9.56284 -1.15298
6.57545 9.68781 -1.16005
6.49754 8.59512 -1.24211
6.64507 8.90167 -1.15445
6.64299 9.64914 -1.14743
6.4913 8.54507 -1.26022
6.59218 8.79306 -1.18694
6.64383 8.84357 -1.16158
6.69406 9.03897 -1.12556
6.69713 9.1384 -1.12561
6.67307 9.47412 -1.13446
6.44656 8.4133 -1.35159
6.49492 8.53775 -1.28336
6.5874 8.74606 -1.20239
6.64113 8.83182 -1.17683
6.69366 8.88144 -1.1519
6.39125 8.35184 -1.4011
6.59328 8.63312 -1.24369
6.74895 9.10031 -1.12446
6.74013 9.20505 -1.12563
6.44341 8.48462 -1.33346
6.68318 9.85361 -1.17643
6.44789 8.44424 -1.34906
6.53621 8.51361 -1.28989
6.70171 8.80533 -1.18861
6.74139 9.3125 -1.13759
6.74727 9.38052 -1.12437
6.58054 8.56262 -1.2597
6.64311 8.68637 -1.23263
6.45567 8.43494 -1.38619
6.79372 8.99326 -1.1321
6.78685 9.15271 -1.10766
6.43948 8.358 -1.39474
6.84262 9.33469 -1.11367
6.44197 8.38474 -1.39005
6.77554 9.89764 -1.17773
6.73872 8.79218 -1.19747
6.82709 9.13675 -1.12125
6.84831 9.54462 -1.12724
6.85518 9.31314 -1.11657
6.84335 9.39157 -1.10962
6.8904 9.38962 -1.11661
6.81621 10.0016 -1.18889
6.89056 9.50409 -1.12207
6.78668 8.84174 -1.19655
6.54922 8.29706 -1.36797
5.99733 8.93533 -1.85365
6.84959 8.88144 -1.19512
6.5381 8.29395 -1.40288
6.95164 9.4451 -1.11689
6.91483 9.61215 -1.14346
6.91664 9.88403 -1.17084
6.84303 10.3016 -1.24306
6.78145 8.854 -1.23492
5.86201 9.64618 -2.04749
6.96126 9.20651 -1.10558
6.94093 10.0071 -1.18419
5.59372 9.37976 -2.29573
6.99643 9.09695 -1.11593
6.89177 8.85254 -1.19937
6.57851 8.2944 -1.41222
6.58693 8.35303 -1.40027
5.85658 9.29547 -2.07987
7.00536 9.09995 -1.13544
7.04788 9.59079 -1.12949
5.88701 9.27975 -2.08165
6.36104 8.69781 -1.63919
5.88725 9.52899 -2.10922
6.79153 8.87595 -1.30621
5.93596 9.25357 -2.08185
5.91374 9.50894 -2.10957
6.90622 8.85965 -1.23987
6.91055 8.93692 -1.22192
6.59612 8.35733 -1.43591
5.91666 9.51642 -2.12196
7.08122 10.1481 -1.18897
7.10847 9.29874 -1.11335
5.67345 9.34882 -2.32732
5.94734 9.49664 -2.13428
5.65942 9.36481 -2.35654
5.97765 9.23087 -2.08096
7.1149 9.79465 -1.1554
7.12794 10.0769 -1.17139
7.01952 9.01221 -1.16933
6.54297 8.34665 -1.55154
5.94743 9.33734 -2.09119
6.87984 8.81308 -1.29399
6.00916 9.21317 -2.07919
5.99852 9.3443 -2.10969
6.05023 9.19962 -2.07982
7.18082 10.1867 -1.19282
6.94749 8.85544 -1.29491
7.04601 9.04391 -1.18959
6.03323 9.32361 -2.10694
6.03207 9.58258 -2.15354
6.87004 8.83365 -1.3301
6.86407 8.8446 -1.34801
6.09508 9.29779 -2.09013
6.11855 9.14542 -2.05387
6.05128 9.57846 -2.17437
7.14493 9.13812 -1.19737
6.64337 8.44785 -1.54322
6.13805 9.25446 -2.07976
6.08345 9.42453 -2.1423
6.09404 9.55411 -2.18087
6.97922 8.83566 -1.31219
6.60657 8.39484 -1.57747
6.21468 9.08112 -2.01741
6.17917 9.23917 -2.07926
6.64522 8.38922 -1.59066
6.69704 8.49063 -1.54853
6.20552 8.98447 -2.03181
6.58762 9.18246 -1.74164
6.99925 8.83508 -1.34457
6.70006 8.49539 -1.51788
7.33708 9.64746 -1.12
7.10693 9.07672 -1.25094
7.11641 9.1691 -1.25591
7.18472 9.17746 -1.19929
6.51067 9.15335 -1.81126
7.38756 9.87891 -1.14143
7.10516 9.00229 -1.28767
6.61711 8.31693 -1.60674
6.64128 9.13403 -1.71129
7.38052 10.2785 -1.21552
7.15401 9.1376 -1.25757
7.07944 8.94299 -1.3041
6.63731 8.31342 -1.63773
6.549 10.1975 -1.97845
7.40813 10.2363 -1.21185
6.73471 8.48831 -1.56378
7.32713 9.32678 -1.15018
6.54915 10.2198 -2.01644
7.28935 9.27982 -1.1892
6.81062 8.59952 -1.52882
6.31978 9.14053 -2.05544
7.17953 9.12985 -1.28397
7.43866 9.54596 -1.14039
7.03279 8.83432 -1.39598
7.12193 9.00778 -1.32667
6.63834 8.33707 -1.65418
6.74083 8.45038 -1.59748
7.07469 8.87521 -1.35554
7.11919 9.01712 -1.34156
7.20586 9.10355 -1.27759
6.53694 9.07672 -1.89648
7.06667 8.8912 -1.37825
6.79367 8.49496 -1.58861
6.80162 8.53098 -1.57717
6.52919 9.07965 -1.9326
6.60274 9.11563 -1.87125
6.32001 9.9743 -2.29649
6.7462 8.41779 -1.63416
6.91438 8.69794 -1.50851
6.41478 9.85995 -2.20487
6.5593 9.81323 -2.06142
6.64662 10.1583 -2.05918
6.56235 9.81793 -2.07587
6.81532 10.2162 -1.92092
6.94411 8.69101 -1.51464
7.00389 8.79691 -1.49026
7.57019 10.1749 -1.20845
6.55159 9.7005 -2.08526
6.66087 10.1524 -2.07077
6.84685 10.197 -1.93137
6.89418 8.59689 -1.56168
7.44763 9.39389 -1.16787
6.9548 8.76169 -1.52257
7.09889 8.89499 -1.44408
6.62242 10.0672 -2.11884
6.66083 8.31879 -1.72911
6.76549 10.1636 -1.98979
6.59866 9.65833 -2.07175
6.64494 9.74567 -2.06232
6.78867 8.4595 -1.64256
6.8398 8.50473 -1.59994
6.8708 10.179 -1.94645
7.03087 10.0721 -1.80181
6.68581 9.58041 -2.04784
6.68484 10.0219 -2.13417
6.74167 10.1104 -2.10526
6.39851 9.81845 -2.38749
6.70714 10.002 -2.13307
6.92482 10.1277 -1.94846
7.07314 10.0137 -1.77936
6.98898 8.68951 -1.55696
6.72658 9.67691 -2.05505
6.72676 9.82462 -2.08987
6.7578 10.1133 -2.14641
6.83658 10.1364 -2.04953
6.81151 8.47461 -1.69509
6.91002 8.57895 -1.64651
7.50732 9.42731 -1.24468
7.7065 9.9472 -1.18266
6.76543 8.42886 -1.73037
7.11458 9.95663 -1.75782
6.75365 9.95993 -2.12961
6.9872 10.0482 -1.94608
7.50095 9.45908 -1.277
7.14166 8.84436 -1.49643
7.14937 8.94955 -1.50467
6.78464 8.43066 -1.75103
7.15738 8.88858 -1.50201
6.77693 9.78125 -2.08693
6.88255 10.0996 -2.07473
7.03065 10.0008 -1.91246
6.96587 8.61902 -1.63292
7.05025 8.69891 -1.5961
7.20497 8.93329 -1.49493
6.79991 10.0985 -2.17289
7.20461 9.84192 -1.72482
7.29991 9.7897 -1.60513
7.38654 9.74994 -1.51247
7.14729 8.81241 -1.54535
7.7451 9.73239 -1.17904
6.83807 10.0422 -2.15614
6.93857 10.0346 -2.05471
6.79965 8.43063 -1.79296
6.99344 8.6322 -1.64336
7.02971 8.66211 -1.59852
7.18816 8.87711 -1.52833
7.34863 9.56055 -1.52978
7.41982 9.72214 -1.50233
6.96255 8.62814 -1.65029
7.25188 8.98349 -1.4978
6.95412 8.56284 -1.68286
7.44324 9.69913 -1.50658
7.56744 9.53943 -1.31877
7.08595 8.70737 -1.59621
7.19992 8.862 -1.5359
6.96823 9.84186 -2.01288
7.04173 8.66205 -1.64283
6.8877 9.67407 -2.05945
7.00055 8.60406 -1.65426
7.13217 8.74323 -1.5966
6.90968 9.81213 -2.10814
6.81453 8.43121 -1.83309
7.17513 8.80072 -1.56347
6.90868 8.52737 -1.7925
6.71274 8.32745 -1.94124
7.55725 9.65707 -1.4491
7.19522 8.80063 -1.59931
7.11935 9.80835 -1.96455
6.88802 8.49225 -1.84424
7.04367 8.64838 -1.70218
7.10384 8.72336 -1.69196
6.96577 8.57596 -1.78579
6.99084 8.60617 -1.74687
6.75072 8.38013 -1.94765
6.84596 8.43976 -1.89898
7.55533 9.56345 -1.49371
7.16518 9.75906 -1.93512
6.93727 8.53735 -1.80015
7.06361 8.67044 -1.73271
7.46034 9.20187 -1.48882
7.48404 9.58798 -1.59327
7.01613 8.62857 -1.77999
7.16139 8.76566 -1.69318
6.99423 8.58945 -1.84739
7.11444 8.72556 -1.73924
5.48741 8.72501 -1.65569
7.42014 9.61026 -1.71131
6.7056 8.33914 -2.04563
6.94864 8.53253 -1.89511
7.16544 8.77155 -1.71848
7.87115 10.5023 -1.55331
7.54428 9.5083 -1.57327
7.13597 8.73691 -1.7491
7.82336 9.61749 -1.31573
6.72542 8.33176 -2.05564
6.83635 8.43521 -1.99702
6.99635 8.58719 -1.88903
7.28036 8.85953 -1.69727
6.95351 8.5383 -1.95066
6.8421 8.4386 -2.04461
7.10689 8.68579 -1.84053
7.15349 8.73032 -1.83997
6.94345 8.5383 -1.99736
7.87485 9.61343 -1.38205
6.80093 8.38748 -2.15073
7.21413 8.7789 -1.84312
7.15337 8.73077 -1.89404
6.74771 8.3428 -2.20258
7.31316 8.87125 -1.79153
7.05811 8.64188 -1.99362
7.27724 8.81299 -1.81206
7.19572 8.7587 -1.88856
7.28665 8.82941 -1.84019
6.80162 8.39886 -2.20375
6.93803 8.4899 -2.1021
7.02682 8.59213 -2.0492
6.7477 8.34265 -2.24328
7.73634 9.30527 -1.54681
7.1299 8.69241 -2.00087
7.33092 8.87726 -1.85427
7.07965 8.64902 -2.04895
6.81114 8.4007 -2.24511
6.85909 8.44925 -2.20888
7.04042 8.59003 -2.09568
7.24432 8.79224 -1.94587
7.29169 8.8396 -1.8992
7.38873 8.92889 -1.84907
7.73578 9.32535 -1.60986
7.33885 8.88409 -1.89059
6.88638 8.4581 -2.24394
7.1044 8.64713 -2.09122
7.20294 8.75684 -2.04509
7.24965 8.80051 -1.99549
7.40211 8.93677 -1.89299
7.45168 8.97531 -1.84548
7.55377 9.07245 -1.79332
6.95395 8.51025 -2.2419
7.72676 9.25165 -1.6582
7.81241 9.37601 -1.6299
7.11382 8.65778 -2.13916
7.20787 8.75357 -2.08718
7.01181 8.56137 -2.24093
7.36493 8.90005 -1.98462
7.56041 9.07761 -1.8303
7.32542 8.84775 -2.0097
7.16301 8.7243 -2.15631
7.52815 9.017 -1.85994
7.72005 9.21042 -1.75951
7.18684 8.72998 -2.19365
7.23746 8.77631 -2.14692
7.82239 9.30087 -1.71868
7.34953 8.8533 -2.08639
7.88626 9.35559 -1.70476
7.14272 8.69986 -2.29211
7.61154 9.08444 -1.93507
8.02449 9.54538 -1.66439
7.3593 8.87296 -2.13631
7.25613 8.78226 -2.24327
7.55113 9.03073 -1.99166
7.70657 9.19278 -1.89413
7.19878 8.73141 -2.28339
7.75867 9.23453 -1.86009
7.37349 8.86667 -2.14735
7.40053 8.93347 -2.18693
8.18004 9.85056 -1.71506
7.62563 9.09061 -1.97223
7.65739 9.14536 -1.95942
7.76242 9.25323 -1.89915
7.36902 8.8761 -2.18507
7.45073 8.94901 -2.14156
7.34129 8.84003 -2.24175
7.77234 9.25113 -1.9123
7.78441 9.25327 -1.93192
7.84145 9.30389 -1.89678
7.38557 8.88211 -2.23933
7.84593 9.31357 -1.93719
7.94534 9.3812 -1.83466
7.4369 8.93515 -2.24707
8.24008 9.86023 -1.79979
7.9527 9.44891 -1.93298
8.00706 9.43723 -1.83053
7.42007 8.99896 -2.34039
7.84059 9.42203 -2.08776
8.22136 9.73828 -1.81688
8.13445 9.56906 -1.84046
7.53398 9.13947 -2.36734
8.00034 9.44052 -1.99298
8.20299 9.68332 -1.89402
7.88908 9.38855 -2.11543
7.79787 9.27701 -2.18951
7.85695 9.32382 -2.16058
8.17078 9.58347 -1.90536
7.81538 9.28683 -2.23576
7.97849 9.41257 -2.1015
7.98817 9.43549 -2.15265
7.89282 9.33438 -2.23618
7.83543 9.29871 -2.28982
7.83594 9.32758 -2.33886
8.16469 9.57993 -2.05626
8.21716 9.63696 -2.02523
7.88203 9.42212 -2.35523
7.94994 9.43375 -2.27792
7.81142 9.23029 -2.34785
7.90158 9.38434 -2.33365
8.02391 9.43549 -2.20268
8.11803 9.66739 -2.26793
8.23314 9.82343 -2.2443
8.08794 9.53976 -2.25055
8.14131 9.60196 -2.22277
7.96579 9.34579 -2.37428
5.09032 7.44876 -2.19278
5.73482 9.38602 -1.40325
6.42348 9.13831 -1.17742
5.62883 7.41196 -2.20078
5.25287 7.48813 -1.92918
5.90344 7.71161 -1.95558
6.54878 8.24811 -1.74652
5.4913 8.19791 -1.62411
6.62607 9.22278 -1.1194
5.1573 8.48178 -1.66669
5.88414 7.87958 -1.64323
7.02487 8.61505 -1.95974
6.56187 9.30823 -1.12879
5.98427 7.97897 -2.15354
6.55006 8.19333 -2.19067
5.68922 8.10141 -1.59851
4.59933 8.35089 -1.85695
4.64793 8.33762 -1.84433
4.63637 8.43936 -1.84294
4.67563 8.41403 -1.82084
4.72314 8.28586 -1.81207
4.77963 8.2327 -1.78801
4.74553 8.39301 -1.80285
4.74298 8.48709 -1.804
4.89728 8.19565 -1.72645
4.74306 8.59238 -1.80735
4.83392 8.33499 -1.76334
4.90279 8.30197 -1.7462
4.83925 8.44193 -1.76681
4.81158 8.5603 -1.78587
4.83171 8.68179 -1.79609
4.94466 8.38321 -1.71978
4.90532 8.49771 -1.75407
4.8624 8.65527 -1.76669
4.99382 8.15741 -1.71809
5.00563 7.6546 -1.7945
4.99156 8.50372 -1.72248
4.95024 8.60229 -1.73259
5.03665 8.23892 -1.70375
5.01466 8.4538 -1.70302
4.9538 8.74573 -1.75339
5.09486 8.24271 -1.6994
5.0222 8.67383 -1.71649
5.10268 8.51105 -1.67615
5.13246 8.38715 -1.68619
5.05286 8.77243 -1.71782
5.14615 8.18964 -1.69104
5.16597 8.37277 -1.66257
5.19771 8.25916 -1.66551
5.19412 8.44839 -1.66329
5.14217 8.69748 -1.6897
5.11415 8.85291 -1.71172
5.19539 8.07101 -1.68177
5.25192 8.33685 -1.65261
5.24623 8.1398 -1.65927
5.24968 8.65311 -1.65969
5.19289 8.79031 -1.68602
5.28728 8.2438 -1.65205
5.29715 8.39594 -1.64764
5.24336 8.78671 -1.67477
5.29288 8.14883 -1.65675
5.30386 8.20135 -1.65581
5.33708 8.38861 -1.63772
5.33049 8.48087 -1.64272
5.33217 8.58328 -1.64621
5.34837 8.1008 -1.65237
5.34302 8.34698 -1.64408
5.66463 9.44934 -1.40847
5.37898 8.55551 -1.63702
5.17587 9.09143 -1.79256
5.37396 9.28336 -1.65101
5.38901 7.98892 -1.64922
5.40408 8.16119 -1.63979
5.40572 8.24884 -1.61808
5.22943 9.04666 -1.7655
5.35953 9.04813 -1.67868
5.41089 9.24448 -1.64828
5.49213 9.27652 -1.56546
5.6385 9.39166 -1.45926
5.71825 9.39523 -1.39491
5.44215 8.34424 -1.61651
5.43666 8.42776 -1.61422
5.44157 8.54105 -1.62883
5.45006 8.22794 -1.61775
5.40134 8.64758 -1.64478
5.36043 8.81662 -1.68754
5.55499 9.33682 -1.55187
5.65659 9.36447 -1.48232
5.42294 7.97809 -1.64941
5.44728 8.63815 -1.64174
5.35637 8.83682 -1.71049
5.47188 9.06714 -1.61915
5.73988 9.40128 -1.43602
5.94203 9.38058 -1.26335
5.50031 8.38995 -1.59993
5.49541 8.49673 -1.61278
5.49623 8.11227 -1.61187
5.99147 9.49969 -1.26367
5.40858 8.7886 -1.68945
5.98756 9.20309 -1.25561
5.99799 9.45401 -1.24881
5.43393 8.77066 -1.68254
5.50211 8.04514 -1.64372
5.54402 8.48392 -1.6078
5.46756 8.74457 -1.66774
5.55043 8.09064 -1.61128
6.04692 9.25543 -1.24362
5.55151 8.46274 -1.60359
5.55162 8.1543 -1.61377
6.09319 9.64276 -1.24356
5.4985 8.62442 -1.68382
5.56096 8.67319 -1.62944
6.11703 9.45572 -1.22322
5.5708 8.90063 -1.65938
5.51906 9.345 -1.73755
6.14612 9.0358 -1.21782
5.64041 8.14172 -1.60239
6.18622 9.23117 -1.19625
5.60246 7.97794 -1.61813
5.68478 8.28653 -1.5814
5.60165 8.54456 -1.64087
6.20201 9.09769 -1.2077
6.23398 9.18146 -1.19312
5.58592 9.43954 -1.75876
5.64388 7.87393 -1.61393
6.21637 8.96378 -1.20501
5.69403 8.2464 -1.59914
6.30266 9.50809 -1.17801
6.24374 8.93869 -1.20496
5.69322 8.04242 -1.61184
6.24591 9.05411 -1.20522
6.28656 9.39645 -1.19669
5.73094 8.66574 -1.61108
5.64577 7.8902 -1.65377
6.18407 8.89346 -1.25874
5.70486 8.01334 -1.60032
6.30307 9.09976 -1.17456
5.73767 8.18463 -1.59861
5.69823 7.93484 -1.61568
6.11559 8.90353 -1.339
6.23135 8.85443 -1.23304
5.69463 7.94028 -1.63494
6.29446 8.88571 -1.1945
6.30064 9.00275 -1.20934
6.38927 9.7103 -1.17137
6.36064 9.16245 -1.16879
5.62941 9.42889 -1.8141
5.74785 8.39548 -1.63293
6.43102 9.48489 -1.15154
6.42046 9.66998 -1.17014
5.72853 7.8374 -1.61175
6.28595 8.79724 -1.21734
5.73029 7.91977 -1.61294
5.79747 8.04572 -1.59616
6.37808 9.14627 -1.1717
5.75111 8.36212 -1.63613
6.44427 9.63766 -1.16753
5.64574 9.43378 -1.84621
6.40096 8.99374 -1.16304
5.78822 8.33762 -1.62606
5.74245 7.82892 -1.64022
5.78412 7.97412 -1.60607
5.84032 8.14401 -1.59231
5.8485 8.10498 -1.59277
6.43788 9.08334 -1.16529
6.42867 9.22488 -1.17554
5.84242 8.02982 -1.5925
6.44911 8.94427 -1.16152
5.84377 8.19186 -1.58405
6.51312 9.71368 -1.16783
5.68369 9.56927 -1.88427
5.84311 7.94824 -1.60371
5.86177 8.30087 -1.59829
5.87584 8.37253 -1.60186
5.67961 9.44165 -1.90795
5.70486 9.56161 -1.89114
6.48454 9.02811 -1.16288
5.92928 8.23236 -1.55225
5.91638 8.33905 -1.57573
6.57396 9.80554 -1.16907
5.66429 9.46521 -1.92407
6.59839 9.39517 -1.11376
5.8275 7.87674 -1.61932
5.88545 7.99985 -1.59793
5.89801 8.14819 -1.58391
5.95572 8.31177 -1.56028
5.6644 9.48312 -1.95809
6.38773 8.72263 -1.23277
5.93428 8.14682 -1.5701
6.61955 9.37289 -1.11874
6.62677 9.52911 -1.13188
5.59151 9.44736 -2.04899
5.84422 7.79245 -1.64068
5.94443 8.138 -1.58406
5.94719 8.33798 -1.59111
6.64915 9.33057 -1.11332
6.63985 9.70117 -1.15635
5.84647 7.8436 -1.64545
6.54271 8.84924 -1.16093
6.66974 9.84372 -1.16253
6.04196 8.25406 -1.55108
5.88412 8.95529 -1.75663
6.45346 8.64688 -1.23786
5.9796 8.1322 -1.59114
6.46503 8.63861 -1.21789
5.99684 8.25006 -1.58933
5.60489 9.46582 -2.10664
6.49722 8.60785 -1.21462
5.99626 8.09778 -1.59347
6.709 9.25009 -1.10799
6.71339 9.41025 -1.12758
6.58778 8.82138 -1.16767
6.67 9.03705 -1.11718
6.0419 8.24136 -1.58582
5.70261 9.50583 -2.04298
5.89134 7.78134 -1.6603
6.72884 9.22162 -1.10434
6.43578 8.59842 -1.27985
6.61111 8.79147 -1.1693
6.0417 8.08804 -1.5955
6.71669 9.10602 -1.11091
6.77147 9.48157 -1.12024
6.73984 9.0831 -1.117
6.85744 9.94901 -1.16682
5.99251 7.88971 -1.65443
6.04216 8.14557 -1.59069
6.31483 8.37628 -1.40803
5.8963 7.78488 -1.68982
6.78369 9.02872 -1.11573
6.15616 8.27353 -1.55775
6.29146 8.34201 -1.45251
6.8831 9.68491 -1.14161
5.95572 7.82706 -1.6841
6.10274 8.0593 -1.59882
6.13478 8.14484 -1.5909
6.31322 8.3013 -1.44141
6.15469 8.19855 -1.58434
6.14668 8.11127 -1.58913
6.77292 8.93411 -1.13789
6.21402 8.24521 -1.54131
6.95753 9.98993 -1.16493
6.98193 9.93451 -1.15446
6.82257 8.9913 -1.12732
6.25055 8.20306 -1.5435
6.86389 9.04572 -1.09956
6.18114 8.18536 -1.60226
6.03085 7.87933 -1.69756
6.19594 8.09222 -1.59993
6.20668 8.15649 -1.56729
6.07866 7.92587 -1.66066
6.90569 9.15167 -1.12466
6.90178 9.00671 -1.10992
6.20651 9.72272 -1.94096
6.1319 7.97366 -1.65115
6.72922 8.82315 -1.23953
6.31038 8.23837 -1.52679
5.95831 9.31335 -2.09193
5.99501 7.8176 -1.74468
6.27502 8.19186 -1.56161
6.32426 8.23911 -1.51473
6.44957 8.37476 -1.4291
5.9919 9.43906 -2.12138
6.39713 8.26263 -1.49345
6.50742 8.30276 -1.36883
5.9465 7.73636 -1.79497
6.35487 9.65054 -1.83472
6.04512 9.55353 -2.15139
6.26239 9.66867 -1.94452
6.48351 8.25522 -1.41907
6.03673 9.24344 -2.08241
6.04491 9.39114 -2.11746
6.17424 9.67523 -2.05494
6.91028 8.91071 -1.15845
6.29761 8.18665 -1.58719
6.15445 7.97287 -1.69674
6.25131 8.07886 -1.63763
6.81973 8.99155 -1.27743
6.55699 8.36224 -1.38979
6.79289 9.08313 -1.35224
6.07359 9.36676 -2.11817
7.18633 9.73413 -1.11592
6.09898 9.50284 -2.14754
6.06892 7.87326 -1.78438
6.19475 7.99619 -1.69986
6.3295 8.17642 -1.60277
7.17955 9.54868 -1.11784
7.20818 9.68884 -1.11178
6.13692 9.63519 -2.17816
6.53545 9.49985 -1.74793
6.81389 9.05869 -1.35228
6.55965 8.28964 -1.43238
6.12743 9.4762 -2.14584
6.12727 7.91763 -1.75393
6.4496 9.40952 -1.84441
6.16161 9.26422 -2.07018
6.15079 9.45352 -2.14305
6.1179 7.92804 -1.7773
6.18713 7.9791 -1.74689
7.13295 9.27496 -1.11974
7.20543 9.49933 -1.11392
7.23643 9.63977 -1.11314
6.22862 8.01566 -1.71341
6.23949 8.04407 -1.68538
6.10068 7.88297 -1.84018
6.36659 9.41617 -1.94501
6.14914 7.93378 -1.79763
6.52347 9.44421 -1.79688
5.98988 7.74826 -1.89573
6.09538 7.86768 -1.82821
6.40889 9.35178 -1.9096
6.2822 8.06293 -1.69814
6.32634 8.10779 -1.65849
6.19327 9.40967 -2.14725
6.05417 7.82965 -1.84918
6.20332 7.97562 -1.7911
6.64653 9.19238 -1.64748
6.85927 9.02631 -1.37785
6.40762 9.37247 -1.93979
6.58118 9.18512 -1.71313
6.04721 7.80197 -1.89936
6.90891 8.92606 -1.32557
6.33945 8.10095 -1.70393
6.68193 10.2203 -1.92344
6.27621 9.31906 -2.10711
6.49303 9.10007 -1.85981
6.77336 9.12561 -1.54676
7.27386 9.38553 -1.11609
6.02252 7.75671 -1.92714
6.08311 7.84222 -1.88565
6.63423 9.14328 -1.74624
6.69893 9.15207 -1.65217
6.25168 8.03073 -1.79014
7.05142 8.90988 -1.21441
7.31262 9.53271 -1.13424
6.00363 7.77164 -1.96258
6.53522 8.30234 -1.59911
7.30266 9.33722 -1.11669
7.32898 9.47525 -1.11451
6.74686 9.09354 -1.64253
6.50632 8.24725 -1.6436
6.6534 8.55731 -1.56021
7.35185 9.42709 -1.1096
6.30302 8.0582 -1.794
6.36084 8.10068 -1.74403
6.83092 10.2084 -1.90808
6.45677 9.06 -1.95149
6.07768 7.81668 -1.95791
6.14621 7.88528 -1.93784
6.19566 7.94354 -1.89322
6.26534 8.02179 -1.84265
6.22841 7.96735 -1.86172
6.78838 9.0419 -1.63302
6.37971 8.11337 -1.76451
6.62976 9.07941 -1.82596
6.71454 9.05911 -1.73032
6.23555 7.96243 -1.90188
6.33208 8.06833 -1.80318
6.51711 8.24426 -1.68029
6.56303 9.05307 -1.91122
6.6111 8.33453 -1.63055
6.04135 7.79196 -2.04431
6.83183 8.99091 -1.62748
6.42877 8.15845 -1.74599
7.08641 10.042 -1.71447
6.02585 7.77899 -2.09464
6.14464 7.87271 -2.00098
6.66667 9.0383 -1.81926
6.75789 9.00595 -1.71837
6.53465 8.25485 -1.69768
6.29504 8.01666 -1.87936
6.44835 8.1618 -1.78685
7.01628 10.061 -1.82194
7.19466 9.92575 -1.58475
6.79787 8.96054 -1.68921
6.59605 8.30569 -1.69912
6.08752 7.81354 -2.04548
6.87843 8.63217 -1.51611
6.86328 10.1162 -2.06033
7.05779 9.99637 -1.81754
6.03162 7.78317 -2.14341
6.15848 7.87573 -2.04836
6.3047 8.03052 -1.94562
6.78571 10.1197 -2.16617
6.49583 8.19687 -1.80009
6.96806 10.062 -1.94831
6.25029 7.97769 -1.98909
6.94785 8.77997 -1.50941
7.16132 9.91422 -1.70219
7.2516 9.85226 -1.59829
7.3183 9.82108 -1.4976
7.08398 8.93384 -1.43425
7.18126 9.88821 -1.70566
7.33815 9.80023 -1.50674
6.21291 7.93637 -2.03739
6.36455 8.07602 -1.94236
7.11375 9.89664 -1.80027
7.33893 9.82602 -1.52684
6.2545 7.9809 -2.04325
7.01596 8.81961 -1.50422
6.4939 8.18802 -1.84509
7.0244 9.98932 -1.95282
7.0451 9.95126 -1.94357
7.15013 9.84811 -1.80372
6.209 7.92783 -2.09484
6.57533 8.24881 -1.812
6.59666 8.27927 -1.7911
7.4561 9.6478 -1.39219
6.01826 7.8038 -2.25112
6.18625 7.88394 -2.10271
6.62126 8.30011 -1.7947
6.93004 8.6127 -1.56823
6.95323 9.76978 -2.01589
7.24527 9.80026 -1.71301
5.88441 7.90433 -2.46894
6.32756 8.03799 -2.05391
7.00212 9.94797 -2.07457
7.09087 9.86563 -1.92187
6.69739 8.35828 -1.75041
6.16418 7.8804 -2.15474
6.53764 8.20657 -1.89849
6.38066 8.08795 -2.04868
6.96802 9.80194 -2.07074
6.54964 8.2305 -1.89004
6.15155 7.88586 -2.20229
7.03404 9.89487 -2.06322
6.91217 8.56375 -1.63449
7.21426 9.76559 -1.81247
6.33978 8.02859 -2.09398
6.88173 8.50888 -1.67073
6.10101 7.85461 -2.2989
6.24142 7.93823 -2.20104
6.29115 7.98282 -2.14055
7.51521 9.59842 -1.42983
6.55522 8.22385 -1.953
6.39767 8.08389 -2.09351
6.65024 8.30463 -1.89769
7.2536 9.71527 -1.81801
6.06528 7.88834 -2.38281
7.26122 9.71191 -1.82484
6.30525 7.99478 -2.20087
6.35741 8.03067 -2.13815
6.55421 8.23007 -2.00147
7.20024 9.70184 -1.909
7.41142 9.65717 -1.64401
7.42409 9.63879 -1.64531
7.4911 9.57471 -1.52842
6.62431 8.26306 -1.95547
6.6635 8.31937 -1.92976
6.11336 7.95996 -2.42396
6.67393 8.31613 -1.94328
6.82353 8.42868 -1.80778
7.05537 8.6785 -1.64439
6.48164 8.14041 -2.09992
6.63626 8.28497 -1.99073
6.43358 8.09061 -2.14993
6.73422 8.36383 -1.94072
6.78096 8.39404 -1.86948
6.8746 8.48715 -1.81161
6.92517 8.52835 -1.76566
6.78879 8.39566 -1.89389
6.18513 8.04208 -2.44958
7.32988 8.96704 -1.51845
7.41624 9.11148 -1.48762
7.54411 9.49771 -1.53636
6.34763 8.03687 -2.24341
6.41817 8.10605 -2.20013
6.64395 8.27997 -2.04436
6.32225 8.00793 -2.25896
7.15848 8.7728 -1.65582
6.3891 8.05209 -2.25096
6.43736 8.10394 -2.24439
6.44139 8.10434 -2.20245
6.80638 8.42239 -1.96187
7.27303 8.86301 -1.62178
6.81091 8.42578 -1.99779
7.59636 9.32462 -1.47284
6.61226 8.23834 -2.1417
7.37267 8.95789 -1.56708
6.71268 8.33859 -2.08256
6.43806 8.09637 -2.29127
7.24945 8.82773 -1.70055
7.67703 9.35751 -1.45786
6.61571 8.25613 -2.2021
6.87984 8.46701 -1.99194
6.97177 8.55853 -1.91597
6.68747 8.2923 -2.15181
7.02647 8.60703 -1.89901
6.50479 8.17017 -2.30697
7.40929 8.98587 -1.64488
7.12814 8.70068 -1.85604
7.17616 8.73978 -1.80329
6.63847 8.25076 -2.20109
7.5099 9.07974 -1.58016
6.57268 8.21167 -2.27712
6.64255 8.25714 -2.24068
7.56558 9.15891 -1.57976
7.07999 8.65671 -1.90762
7.15092 8.70804 -1.89546
7.6299 9.19778 -1.55356
6.70566 8.3038 -2.25142
7.59319 9.17459 -1.6273
7.64075 9.22476 -1.58785
7.15872 8.73724 -1.9481
6.95636 8.53152 -2.08553
6.80299 8.42264 -2.2203
7.21347 8.77841 -1.91422
7.31239 8.86923 -1.84269
7.71289 9.27811 -1.57862
7.62494 9.14609 -1.64316
6.73483 8.43646 -2.3842
6.70473 8.31583 -2.02987
7.6111 9.12311 -1.74771
6.89859 8.47333 -2.27777
7.66852 9.18845 -1.73225
6.97415 8.50366 -2.24836
7.01834 8.57083 -2.235
6.92967 8.62323 -2.41032
7.03366 8.57751 -2.25443
7.74913 9.21603 -1.71216
7.09767 8.62769 -2.24002
7.3046 8.82153 -2.11423
7.41939 8.9256 -2.06629
7.38567 8.88943 -2.1528
7.23964 8.75266 -2.23215
7.33345 8.83768 -2.19347
7.60458 9.07745 -1.99726
7.57246 9.0524 -2.08928
7.92966 9.37851 -1.90405
7.82402 9.29645 -2.01092
7.88033 9.3269 -1.95341
8.01074 9.71017 -2.07791
7.66475 9.13327 -2.13216
7.71741 9.26093 -2.16078
7.77599 9.2424 -2.05901
7.49193 9.09955 -2.38066
8.04535 9.69629 -2.10681
7.63058 9.09293 -2.21091
7.92068 9.35904 -2.02541
7.65604 9.09644 -2.24898
7.75992 9.24402 -2.19902
8.07733 9.65738 -2.11583
8.103 9.64642 -2.13662
7.67845 9.10007 -2.28304
7.98888 9.41626 -2.1486
7.9247 9.36087 -2.18439
7.71182 9.12466 -2.35388
7.91263 9.36029 -2.33001
7.85347 9.21152 -2.45557
8.08315 9.52606 -2.34133
5.3967 7.80005 -1.70175
5.97122 8.3219 -1.60022
5.74457 7.59442 -2.156
4.67513 7.90756 -1.97552
4.85135 8.64102 -1.79803
5.43977 8.43301 -1.62659
5.99709 7.71121 -2.29216
5.40248 7.47354 -1.83519
6.16936 8.93716 -1.2882
4.83391 7.74838 -1.84551
5.50888 7.70963 -1.70142
4.99498 8.80106 -1.76054
4.98662 8.93829 -1.78222
5.55156 7.60852 -1.71667
6.26001 7.97757 -2.09654
5.67392 8.59702 -1.61447
4.87848 8.58505 -1.7918
4.60512 8.59982 -1.87088
4.69615 8.44119 -1.83236
4.70825 8.50708 -1.81433
4.71831 8.64938 -1.83836
4.69412 8.08139 -1.83367
4.74326 8.74438 -1.82941
4.72685 8.03207 -1.81587
4.79329 8.68607 -1.80601
4.70383 7.9454 -1.85064
4.84615 8.39346 -1.77554
4.72786 7.9375 -1.83336
4.8018 8.19742 -1.78345
4.8512 8.4028 -1.76486
4.84639 8.51868 -1.77547
4.76532 7.91165 -1.81488
4.79042 7.98633 -1.80311
4.86887 8.2598 -1.75457
4.89484 8.603 -1.76438
4.8925 8.76035 -1.78937
4.82779 8.07855 -1.80378
4.85385 8.14944 -1.76455
4.89366 8.2352 -1.75457
4.87842 8.14938 -1.7634
4.95021 8.43628 -1.74473
4.94798 8.55145 -1.73781
4.84038 7.93857 -1.78789
4.95729 8.64581 -1.75646
4.80133 7.79984 -1.84279
4.89169 7.84109 -1.78356
4.90741 8.02438 -1.76945
5.00267 8.29303 -1.72929
5.03526 8.47946 -1.71082
4.99352 8.08682 -1.7325
4.85686 7.76266 -1.81397
4.95392 7.99356 -1.76015
4.89938 7.74252 -1.8059
4.93147 7.80923 -1.77378
4.95621 7.89746 -1.74993
5.01942 8.04144 -1.7159
5.0872 8.79575 -1.72499
5.08426 8.98111 -1.75543
4.9817 7.98917 -1.74327
5.13077 8.5264 -1.70262
5.14345 8.63907 -1.69338
5.14474 8.79095 -1.70859
4.95941 7.79172 -1.76643
5.00739 7.95901 -1.74655
5.14983 8.49347 -1.69453
5.10454 9.12674 -1.78439
4.95062 7.70306 -1.79259
4.98341 7.77533 -1.76377
5.06487 8.01193 -1.71267
5.19173 8.74277 -1.6884
5.15591 9.05801 -1.74908
5.03604 7.83295 -1.74046
5.08969 7.99719 -1.71487
5.14551 8.23721 -1.69299
5.15236 8.36069 -1.70188
5.19911 8.5918 -1.6823
5.0049 7.75424 -1.76484
5.14977 8.0578 -1.6956
5.25285 8.93454 -1.6926
5.12938 7.9697 -1.71149
5.09492 7.79938 -1.73863
5.49832 9.35571 -1.55397
5.18077 8.03464 -1.6993
5.23775 9.14954 -1.77804
5.03703 7.65012 -1.79499
5.48297 9.40265 -1.59038
5.59203 9.39801 -1.48705
5.21925 8.10031 -1.66678
5.24307 8.18854 -1.66348
5.61008 9.35623 -1.50623
5.68059 9.39569 -1.4502
5.24159 8.0993 -1.68609
5.29729 8.34396 -1.65068
5.30615 9.05115 -1.72856
4.98895 7.59808 -1.84813
5.38889 9.07614 -1.66279
5.40463 9.22934 -1.68385
5.82394 9.4653 -1.33628
5.5499 9.32941 -1.59444
5.85184 9.40756 -1.31744
5.351 8.5397 -1.63924
5.08516 7.63156 -1.77555
5.14679 7.74637 -1.74148
5.20528 7.90103 -1.70925
5.25438 7.97507 -1.66933
5.34007 8.2366 -1.65047
5.38908 8.9299 -1.69427
5.0385 7.57755 -1.82682
5.24777 7.89163 -1.69944
5.94029 9.43683 -1.28345
5.39101 8.49939 -1.63462
4.75542 7.70175 -2.08987
5.05643 7.56372 -1.80869
5.11499 7.61243 -1.76409
5.43791 9.21298 -1.70926
5.28072 7.94662 -1.68528
5.39597 8.39877 -1.6449
5.57576 9.31345 -1.61125
5.78511 9.44577 -1.4538
5.3871 8.18903 -1.64202
5.43437 8.47714 -1.62986
5.3864 8.82947 -1.72136
5.10045 7.55521 -1.80978
5.20395 7.6564 -1.74267
5.24252 7.80038 -1.73076
6.05458 9.65927 -1.27063
5.98773 9.17929 -1.27794
5.43639 8.25162 -1.63048
5.09285 7.5538 -1.84452
5.1853 7.58292 -1.76553
6.0994 9.55667 -1.24588
5.51495 8.5195 -1.61439
5.48558 8.71063 -1.65904
5.23593 7.64136 -1.74907
6.00092 9.16852 -1.28544
5.48253 8.3382 -1.62733
6.14003 9.71841 -1.25104
5.28728 7.77945 -1.72557
5.53371 8.79782 -1.67431
5.07649 7.57559 -1.8985
5.29428 7.6958 -1.73242
5.3914 7.88217 -1.66654
5.21761 7.5575 -1.76735
5.59349 9.39639 -1.73918
5.48985 8.08847 -1.64253
6.13231 9.29495 -1.24022
5.29698 7.7532 -1.73897
5.98212 8.92365 -1.3476
5.40147 7.84537 -1.69131
6.04683 8.96149 -1.30865
5.55748 8.65744 -1.69959
4.99483 7.54745 -2.00924
5.44814 7.84698 -1.68044
5.49232 7.89645 -1.65811
6.11418 8.99185 -1.26637
4.94205 7.50464 -2.09721
5.33086 7.57495 -1.74065
5.38152 7.73856 -1.72437
6.20876 9.16226 -1.22686
4.95529 7.48575 -2.06236
5.37564 7.62994 -1.71523
5.00331 7.48459 -2.04619
5.34335 7.54663 -1.75222
5.37831 7.62683 -1.72746
5.45204 7.75919 -1.70063
5.48964 7.83527 -1.68225
6.13857 8.97318 -1.28148
6.2393 9.11166 -1.22369
6.28883 9.19678 -1.20223
5.10001 7.49307 -1.98587
6.08652 8.93668 -1.33775
5.34442 7.496 -1.78706
5.39442 7.54105 -1.75314
5.39711 7.59506 -1.7436
5.72707 8.45938 -1.6349
5.19948 7.50729 -1.95234
5.78378 9.62936 -1.85169
6.12482 8.90506 -1.35791
5.64606 7.99274 -1.63178
5.59315 7.84128 -1.65551
6.43089 9.33646 -1.17915
5.09019 7.41119 -2.05017
5.14644 7.45871 -1.99992
5.72345 9.56744 -1.91224
5.86438 9.67651 -1.8031
5.69394 9.45218 -1.9506
5.80197 9.63989 -1.88482
5.14885 7.39426 -2.04905
5.20314 7.45053 -1.98927
5.87651 9.7103 -1.85461
5.95718 9.73553 -1.78313
5.61729 7.81558 -1.65687
5.78871 8.40292 -1.63778
5.45045 7.50986 -1.76117
5.65152 7.79404 -1.65998
5.74471 8.04861 -1.60139
5.96991 9.74521 -1.80963
6.34572 8.78818 -1.2309
5.82068 8.36453 -1.62426
5.98576 9.74567 -1.83135
6.38457 8.88702 -1.22247
6.41988 8.97803 -1.19674
5.30327 7.45715 -1.95545
5.38124 7.48856 -1.89176
5.53409 7.58276 -1.74291
5.69803 7.75061 -1.6618
6.40753 8.85605 -1.22617
5.19412 7.39548 -2.04401
5.59091 7.59875 -1.71729
6.50685 9.00046 -1.18071
5.88029 8.17062 -1.58174
5.29642 7.39105 -1.99621
5.84621 8.00214 -1.60409
5.20293 7.36029 -2.05313
5.44554 7.44952 -1.84797
5.59097 7.64569 -1.72689
5.95773 9.69263 -1.94652
5.14145 7.39285 -2.10796
5.7532 9.51352 -2.11007
5.60423 7.59088 -1.73082
5.81432 9.60651 -2.08434
5.69562 7.74078 -1.68163
6.44914 8.79709 -1.23047
5.39848 7.40335 -1.91327
5.76141 7.80441 -1.66271
5.79839 7.85297 -1.65407
5.82939 7.92596 -1.62424
5.90373 8.05728 -1.60866
5.53387 7.49115 -1.80635
5.59177 7.53531 -1.78581
5.96895 9.77231 -2.0438
6.0726 9.73642 -1.9383
5.79228 7.78409 -1.67117
6.48894 8.74713 -1.24009
6.52576 8.82095 -1.20805
5.1382 7.4227 -2.21851
5.64517 7.56299 -1.7597
5.99052 9.72971 -2.02902
5.9624 8.22739 -1.62101
5.42738 7.38828 -1.91962
5.12845 7.44284 -2.26285
5.45177 7.39276 -1.94739
5.78989 7.70529 -1.70145
5.73697 7.64728 -1.74567
5.93918 7.93744 -1.63906
5.94612 8.02682 -1.62281
5.84337 7.74609 -1.69352
5.57695 7.45721 -1.85971
6.03041 9.75909 -2.11306
5.69199 7.55042 -1.79979
5.99852 7.98389 -1.63079
5.48512 7.39902 -1.95236
5.55031 7.40714 -1.9437
5.79689 7.68338 -1.7365
5.59947 7.45206 -1.89886
6.25128 8.45499 -1.51648
5.24594 7.3768 -2.23974
6.54121 8.55984 -1.28404
6.56564 8.66699 -1.27245
6.62309 8.6702 -1.21317
6.61844 8.72635 -1.25223
5.71223 7.53879 -1.83289
5.80539 7.6424 -1.7912
5.88417 7.74026 -1.74097
6.62997 8.72665 -1.26741
5.23782 7.37509 -2.29763
6.28589 8.27377 -1.49697
5.93365 7.78949 -1.74555
5.75923 7.59219 -1.83298
6.42726 9.53741 -1.83618
5.49568 7.35638 -2.05027
6.47762 8.46487 -1.38858
6.35378 9.5527 -1.94006
5.36876 7.59341 -2.28257
5.68532 7.582 -1.95365
5.86002 7.68265 -1.78365
5.43629 7.33862 -2.14954
6.58478 9.61728 -1.74266
5.5117 7.37552 -2.04563
5.60501 7.47549 -2.00613
5.84613 7.64474 -1.83854
6.38933 9.48077 -1.92119
6.73123 9.13312 -1.41388
5.29346 7.67383 -2.43747
6.41553 9.39099 -1.8741
6.55095 9.508 -1.79078
5.52168 7.36447 -2.07797
5.62668 7.46188 -2.00784
5.75002 7.59903 -1.90233
6.31752 9.5152 -2.04945
6.74657 9.11523 -1.42033
5.44066 7.34683 -2.19951
5.47816 7.50693 -2.19654
6.32915 9.50012 -2.05028
6.75954 9.09665 -1.42326
6.18349 8.04453 -1.64216
5.53084 7.38815 -2.09377
6.33684 8.28253 -1.58493
5.78552 7.59854 -1.94682
6.35141 9.44058 -2.02232
5.44685 7.43893 -2.23106
6.51222 9.46072 -1.8796
6.78221 9.08548 -1.44325
6.01628 7.83475 -1.78834
6.46631 9.38785 -1.93711
6.52493 9.45233 -1.88873
6.16347 7.96045 -1.67959
5.59702 7.41266 -2.10457
5.73727 7.5708 -2.01443
5.90021 7.68716 -1.88102
5.882 7.7254 -1.952
5.99338 7.77768 -1.84497
5.71124 7.61005 -2.0885
5.78911 7.62469 -2.00653
5.59988 7.41312 -2.13512
6.56099 9.10837 -1.80779
6.75658 9.1066 -1.57538
6.18234 7.96909 -1.72787
6.28052 8.06314 -1.65651
6.83127 9.09732 -1.51105
5.65761 7.60294 -2.20501
5.43907 7.36945 -2.34619
5.62213 7.40799 -2.15973
5.78661 7.65466 -2.08979
5.88663 7.65829 -1.98031
6.71292 9.11005 -1.67793
6.50635 8.32956 -1.57735
6.2506 8.04416 -1.74796
5.65805 7.48361 -2.18881
5.85532 7.65152 -1.9936
6.85991 9.04977 -1.51276
6.55811 8.3772 -1.55396
6.66472 9.10931 -1.77633
5.78114 7.68961 -2.16082
5.94151 7.69781 -2.00057
6.67883 9.08585 -1.77446
6.5504 9.06332 -1.92266
6.5789 8.36053 -1.5649
5.87978 7.68283 -2.08773
6.90239 8.96246 -1.50353
5.79399 7.6058 -2.14478
5.82841 7.64499 -2.14014
6.78635 9.00571 -1.68688
6.3662 8.12299 -1.7415
5.78339 7.60007 -2.19541
5.68204 7.4942 -2.25156
5.84328 7.65045 -2.1945
5.86005 7.71896 -2.16443
5.94701 7.70081 -2.04643
6.06007 7.79941 -1.9931
5.65083 7.41696 -2.29808
5.89874 7.69427 -2.15678
6.87627 8.93109 -1.59208
6.43694 8.17401 -1.75554
5.68732 7.49771 -2.34184
5.79247 7.59836 -2.24316
6.74452 9.05515 -1.83156
6.39619 8.12637 -1.7944
5.71643 7.57013 -2.31846
6.63295 8.33237 -1.6098
6.67973 8.40411 -1.60353
5.85103 7.65646 -2.24496
6.96712 8.75467 -1.43794
6.91141 8.91714 -1.62446
5.88892 7.73221 -2.27319
5.98071 7.7142 -2.13453
6.08025 7.81589 -2.08365
5.70738 7.49298 -2.38396
6.01868 7.78864 -2.14444
6.33246 8.05005 -1.94524
5.74567 7.54233 -2.39559
5.79459 7.58801 -2.34839
6.18588 7.89999 -2.04974
7.01025 8.81384 -1.52974
5.80222 7.62 -2.36304
5.94711 7.70578 -2.24238
6.00558 7.73846 -2.20043
6.28786 8.00351 -1.9918
6.44676 8.13959 -1.89557
6.74014 8.41385 -1.6954
5.94034 7.70016 -2.29892
5.74251 7.49805 -2.43518
6.51186 8.19449 -1.89402
5.74567 7.49185 -2.50501
5.79817 7.54318 -2.44865
5.94156 7.68964 -2.35015
6.02267 7.7373 -2.25046
6.32123 8.0159 -2.05631
6.23439 7.90329 -2.11058
6.02347 7.73532 -2.2934
5.98824 7.69678 -2.3433
6.01332 7.7435 -2.34167
6.43243 8.1181 -2.02331
6.12396 7.86438 -2.2928
5.87352 7.59317 -2.46256
5.93065 7.64328 -2.44125
6.14317 7.87497 -2.29591
6.11717 7.89688 -2.35732
6.6525 8.30597 -1.94981
7.02348 8.61038 -1.66794
6.72318 8.35205 -1.9125
6.27505 7.95459 -2.28605
6.26559 7.98511 -2.34224
6.32825 8.01602 -2.28741
7.0742 8.64316 -1.7547
6.29181 8.10666 -2.43788
6.57292 8.21063 -2.20279
6.62845 8.2428 -2.16042
6.52596 8.16348 -2.25075
6.5882 8.22421 -2.24748
7.17357 8.71793 -1.78998
6.70645 8.32648 -2.19371
6.53571 8.20926 -2.33932
6.67757 8.28424 -2.2823
7.22694 8.7684 -1.88849
6.67743 8.33838 -2.35688
6.86905 8.44366 -2.22307
7.31723 8.87119 -1.92127
7.31175 8.83072 -2.03092
6.97316 8.51392 -2.27296
7.2252 8.74307 -2.16245
7.18269 8.70706 -2.23713
7.30371 8.80121 -2.14854
7.29529 8.83636 -2.32305
7.47537 9.06735 -2.38633
4.7325 7.79153 -2.11184
5.59811 7.83658 -1.68571
5.2256 8.72122 -1.672
4.80235 8.64966 -1.80587
4.58051 8.3049 -1.86043
4.59465 8.44427 -1.87492
4.63344 8.38858 -1.85388
4.65414 8.51004 -1.83553
4.60954 8.24759 -1.86006
4.58801 8.14621 -1.8897
4.75578 8.54025 -1.80417
4.61189 8.14542 -1.86366
4.68861 8.18069 -1.81176
4.70235 8.16904 -1.81274
4.8394 8.59744 -1.78757
4.83975 8.77734 -1.81143
4.86719 8.73459 -1.79495
4.6628 7.98666 -1.86794
4.84224 8.28854 -1.77444
4.89442 8.52182 -1.76318
4.45807 8.147 -2.13763
4.73712 7.89706 -1.84502
4.92581 8.32779 -1.74466
4.8611 7.99997 -1.76611
5.07632 8.5925 -1.70488
5.13855 8.8793 -1.72519
5.14035 9.11304 -1.77346
4.96593 8.14865 -1.74428
5.01788 8.20966 -1.70863
4.84752 7.79681 -1.81787
5.18764 8.64267 -1.69123
5.16542 8.46133 -1.66991
5.25737 9.11566 -1.73176
4.78416 7.76489 -1.88446
4.94737 7.84607 -1.77825
5.05838 8.04843 -1.73106
5.20738 8.40881 -1.66498
5.29819 8.80865 -1.6736
4.82962 7.72351 -1.87449
5.00537 7.8591 -1.74792
5.3143 8.78149 -1.66748
5.33311 8.99814 -1.71914
4.85106 7.69812 -1.84299
5.06487 7.90726 -1.71625
5.19812 8.29565 -1.69894
5.32784 9.01584 -1.72923
5.58186 9.34247 -1.58198
4.70253 7.81143 -2.08588
5.36212 8.95364 -1.71477
5.42813 9.00793 -1.66436
4.70963 7.78964 -2.06495
4.88261 7.68719 -1.87494
4.72011 7.78247 -2.06721
5.10785 7.86481 -1.7134
5.39977 8.89261 -1.70595
5.45844 8.95511 -1.65617
5.46513 9.23355 -1.72273
5.48207 8.89798 -1.6352
5.10603 7.75986 -1.73499
5.45346 8.77301 -1.66179
4.94916 7.63776 -1.87391
5.14796 7.83063 -1.72011
5.28462 8.19461 -1.69273
5.41731 8.43146 -1.61968
5.54915 9.38358 -1.76259
5.17731 7.80154 -1.71823
5.30731 8.16315 -1.6846
5.32887 8.14359 -1.67939
5.50247 8.4982 -1.63172
5.53719 8.6312 -1.63648
4.73317 7.7084 -2.19693
5.11681 7.65295 -1.76661
5.20911 7.79819 -1.72552
5.35234 8.10403 -1.67314
5.57074 8.7825 -1.64721
5.19576 7.69101 -1.74936
5.33754 7.98248 -1.67804
5.58961 9.40854 -1.83433
5.49493 8.3334 -1.62006
5.54332 8.44022 -1.62766
4.79594 7.6376 -2.13783
5.59419 9.42474 -1.85317
5.15118 7.6391 -1.79428
5.74457 9.57651 -1.76775
5.40034 8.05066 -1.67369
4.834 7.6076 -2.09428
5.62608 8.67865 -1.62564
4.94675 7.58405 -2.00064
5.13629 7.53311 -1.80214
5.30269 7.7966 -1.71408
5.34511 7.88974 -1.69581
4.85231 7.5885 -2.12343
5.65392 8.62106 -1.60998
5.42162 8.02676 -1.67368
5.51332 8.16049 -1.6225
5.5316 8.14172 -1.62667
5.16788 7.51114 -1.7911
5.33855 7.78943 -1.71622
5.39456 7.896 -1.68425
5.68208 8.59409 -1.62253
5.1786 7.50208 -1.79144
5.71101 9.57953 -1.92292
5.35045 7.75143 -1.71846
5.70482 8.55344 -1.61562
5.2403 7.54129 -1.79062
5.44083 7.87823 -1.67977
