-3.15977 0.39212 -1.84195
-1.06013 2.9993 -1.60017
-2.791 0.537659 -1.98669
-3.09776 0.321838 -1.98483
-3.85741 0.128326 -2.2097
-1.35541 2.1785 -1.30925
-0.755081 2.28323 -1.84107
-3.70445 0.350616 -1.92263
-3.11021 0.288757 -2.40411
-0.925827 2.11514 -1.80453
-2.7509 0.746277 -1.78441
-3.43661 0.811493 -1.82631
-0.703339 2.34146 -2.08699
-1.70349 1.44498 -2.08319
-2.19615 1.23392 -1.68917
-2.91978 0.418854 -2.38362
-1.78296 2.79443 -2.02445
-2.21349 1.49435 -1.34459
-0.698471 3.40952 -1.69405
-1.81274 2.6239 -1.32398
-0.128708 2.90808 -1.99214
-3.05307 0.848572 -1.75263
-1.1438 2.59622 -1.60619
-1.83734 1.86337 -1.63103
-1.34935 3.64795 -1.74896
-0.772766 2.32297 -2.01858
-1.31786 2.6568 -1.60665
-2.50609 2.44415 -2.54456
-1.06444 2.20752 -1.55375
-1.80258 1.9028 -1.28181
-3.80508 0.393372 -1.95024
-1.06386 2.83041 -1.626
-1.75818 2.59949 -1.31919
-1.23242 2.85004 -1.58222
-1.78854 1.48538 -1.84946
-0.412857 3.20999 -1.84767
-3.69658 0.123871 -2.50245
-4.51547 1.03534 -2.25832
-4.22287 0.680573 -2.08293
-2.15697 2.88614 -1.39849
-2.51387 1.73294 -1.35159
-3.1154 2.38406 -2.1035
-3.3053 1.13266 -1.84304
-3.18372 1.20718 -1.76883
-2.41565 0.849548 -2.14565
-2.29747 1.01755 -2.38365
-1.77406 1.39911 -1.90777
-1.30066 3.74991 -1.76021
-1.15352 1.92831 -2.34339
-1.54399 3.21106 -1.57455
-1.61433 2.22659 -1.28967
-1.94635 1.52225 -1.53163
-2.34692 0.902344 -2.19504
-3.41502 0.0964661 -2.0011
-1.41595 2.43954 -1.87989
-1.34375 1.7377 -2.05344
-0.451996 2.84409 -1.62479
-3.69286 1.35437 -1.87749
-1.07948 3.88 -1.77633
-0.713898 2.78357 -1.6112
-2.24619 0.977966 -2.09806
-1.23582 1.82611 -2.14989
-1.28751 2.98557 -1.60635
-2.26268 0.997711 -1.89682
-0.560745 2.49893 -2.2888
-0.998032 2.03741 -2.38694
-0.792984 2.40814 -1.63683
-0.50174 3.1973 -1.65133
-2.7541 1.02536 -1.70568
-3.53996 0.110046 -1.91375
-2.21468 2.03998 -1.84832
-1.62761 2.97293 -1.68542
-1.36455 2.43771 -1.79311
-2.65616 0.822815 -1.78889
-0.355316 2.66824 -2.27284
-2.44995 1.05905 -1.68967
-3.79929 1.54254 -1.90071
-1.0616 1.98752 -2.17643
-1.13889 2.03317 -1.77856
-3.3835 0.0737305 -2.38419
-3.15822 0.995453 -1.78279
-1.51247 2.591 -1.70147
-2.8656 1.98154 -1.42798
-1.7019 3.22815 -1.66853
-1.35838 1.73187 -1.99483
-1.70123 1.55075 -2.39999
-1.9538 1.5043 -1.79051
-0.372269 2.61612 -2.08706
-1.88036 1.70963 -1.3129
-2.17844 3.15604 -2.22874
-1.06117 2.03683 -1.88912
-0.310059 2.79785 -1.78855
-0.579117 2.39703 -2.49838
-1.30899 2.89462 -1.64455
-1.68857 3.28867 -1.70124
-0.847885 2.15118 -2.34052
-1.52928 3.02081 -1.6728
-3.36009 0.0732422 -2.39605
-1.39789 1.77609 -1.79935
-1.07689 1.96066 -2.20554
-3.50597 0.653168 -1.86047
-1.66281 3.13538 -1.71023
-1.9597 1.34744 -2.42996
-1.15317 3.13104 -1.6519
-1.70145 2.98489 -1.61478
-4.37805 0.822723 -2.47228
-0.612991 2.34775 -2.19977
-3.39795 0.39444 -1.8606
-3.06656 0.279633 -2.60097
-2.33174 0.934387 -2.0751
-0.87529 3.62616 -1.71939
-4.11392 1.45364 -1.98961
-3.80188 1.29688 -1.89473
-2.84032 0.607269 -1.83509
-3.85489 0.245636 -2.11227
-1.57497 1.67255 -1.71311
-2.38512 2.19724 -1.33709
-2.62444 0.717834 -1.9069
-1.00899 3.82867 -1.75188
-0.705032 3.09207 -1.64093
-1.3616 2.28387 -1.30059
-2.05154 2.85397 -1.37817
-3.51016 1.23529 -1.83681
-1.10153 2.01019 -1.79697
-0.778351 2.3364 -1.7124
-3.05754 0.347046 -2.20312
-2.30888 0.954163 -1.9492
-0.909836 2.7977 -1.612
-1.51164 2.55145 -1.83159
-2.00874 1.2518 -2.34847
-1.45473 1.65073 -2.09719
-2.47554 1.53421 -1.36899
-2.07475 2.22922 -1.31207
-0.685745 2.76563 -1.64902
-0.834351 2.41782 -1.59353
-2.63879 0.945526 -1.7052
-1.93982 2.7496 -1.35517
-2.20901 1.45706 -1.38504
-2.24864 2.70706 -1.36063
-1.66454 2.0863 -1.29564
-1.88206 1.80502 -1.64938
-1.78928 1.52298 -1.73799
-1.65306 1.49484 -2.04577
-3.94623 0.591003 -1.97229
-2.72659 0.575867 -2.39194
-1.4659 2.97897 -1.65674
-1.55281 2.3454 -1.30075
-0.991943 3.91086 -2.10706
-1.48674 2.90457 -1.45665
-2.00514 2.80386 -1.36849
-1.05508 2.88913 -1.61865
-1.86537 1.69598 -1.39568
-3.29247 2.08054 -1.68147
-3.55211 1.1499 -1.8485
-3.0553 0.341736 -2.44349
-1.05992 2.34631 -1.47934
-1.51198 3.63037 -1.75932
-1.51663 1.59424 -2.05232
-2.87146 0.520782 -2.48085
-1.42484 2.38266 -1.96822
-1.35915 2.13705 -1.39036
-0.737595 2.40201 -1.73395
-3.74094 1.89688 -1.94016
-2.92853 2.29358 -1.44632
-3.40588 0.778839 -1.81628
-1.04501 2.00949 -2.04589
-1.14403 3.91949 -1.78103
-2.69543 0.962677 -1.73276
-1.95387 1.99417 -1.29121
-3.85555 0.440582 -1.95459
-1.59692 1.57037 -2.24375
-3.92291 0.680786 -1.97629
-1.10104 1.94791 -2.10048
-1.66348 2.55585 -1.31348
-1.65135 2.03824 -1.29103
-1.43562 2.36893 -1.9286
-4.03595 1.26715 -1.96207
-3.80225 0.906036 -1.92556
-1.87521 2.5051 -2.19094
-2.10181 1.09915 -1.99825
-3.80777 0.254761 -2.13719
-2.32053 0.966705 -1.69019
-0.78009 2.24054 -2.01177
-1.80586 1.38193 -2.20245
-0.228622 2.88168 -2.29205
-3.45914 0.641785 -1.8486
-1.30484 1.88501 -1.79488
-2.04512 2.23856 -2.28337
-3.61603 -0.0110474 -2.11023
-2.04735 2.31796 -1.32955
-0.413895 2.69965 -1.75439
-4.45535 1.24005 -2.08412
-1.16092 2.03189 -1.74002
-2.53676 0.791199 -2.35471
-1.50569 1.98468 -1.47694
-0.952744 2.15207 -2.32682
-1.15959 1.92508 -2.0393
-1.85094 3.30759 -1.72457
-2.35861 1.2233 -1.64495
-2.13857 1.93924 -1.31283
-2.85921 2.09677 -1.4213
-1.8932 1.79486 -1.59245
-1.46559 3.09781 -1.68829
-3.9982 1.0433 -1.94798
-2.26537 1.2778 -1.45518
-2.42174 0.872437 -1.69637
-3.31175 1.04755 -1.80233
-2.24812 2.24783 -1.32509
-2.41971 0.858429 -1.95446
-3.09679 0.287262 -2.43938
-2.89531 0.495697 -1.93167
-3.11002 0.348816 -1.89621
-1.73874 2.20761 -1.29573
-2.07306 1.54898 -1.36889
-4.08562 0.353149 -2.27068
-2.13689 2.33475 -2.32736
-0.569382 2.36713 -1.99751
-2.83934 0.664886 -1.75901
-1.4521 3.30692 -1.64789
-1.56151 3.25082 -1.64951
-3.19328 0.235779 -2.0953
-4.11896 0.544067 -2.63662
-2.82509 2.38922 -2.28835
-2.59593 2.10123 -1.36152
-4.05801 1.24142 -1.97261
-3.22142 0.638428 -1.79949
-1.31422 1.90088 -1.74589
-2.15457 1.06421 -2.23593
-1.16469 2.1983 -1.4563
-2.06718 2.77475 -1.3931
-1.6765 2.98907 -1.45493
-0.312012 2.74738 -1.84369
-1.07004 2.05136 -2.25659
-2.81635 0.60144 -1.85446
-0.90004 3.4024 -1.68744
-0.350784 3.21295 -2.03846
-3.2449 0.325836 -2.25033
-3.64268 -0.0385742 -2.1994
-0.425476 3.2229 -1.86704
-2.05931 2.04065 -1.29742
-1.80371 2.8403 -2.03659
-3.70067 0.0519714 -2.11155
-1.51982 1.784 -1.65023
-1.89076 1.51266 -1.58743
-2.84056 0.562164 -2.13738
-2.11171 1.6456 -1.32362
-2.70395 0.935974 -1.69832
-1.81456 1.58664 -1.58586
-1.68431 2.66595 -1.32755
-0.541321 2.85208 -1.61631
-0.749496 2.24399 -2.29091
-3.36797 0.147797 -1.9607
-0.632736 2.44806 -1.85238
-2.85359 2.12686 -1.401
-3.14963 2.38907 -2.09647
-2.78412 0.712433 -1.7495
-1.40767 1.94727 -1.58297
-3.23235 1.64731 -1.6957
-3.69241 1.28922 -1.85966
-2.40692 1.94101 -1.33215
-2.28552 1.76163 -1.3133
-3.56766 -0.0430603 -2.11498
-1.71341 1.88461 -1.34011
-1.99071 1.28995 -1.84134
-1.24377 2.27664 -1.38219
-0.45726 2.90259 -1.61444
-1.79588 1.41006 -2.29354
-2.45619 1.0394 -1.59464
-1.79918 1.54083 -1.70023
-2.3315 2.21552 -2.00497
-0.413162 3.16241 -1.69209
-2.51639 0.843903 -1.8519
-0.588348 3.4006 -1.83145
-1.49356 1.79669 -1.72765
-3.99173 1.68747 -1.95397
-1.45915 2.43484 -1.30942
-3.29967 0.662109 -1.8222
-2.49628 2.14932 -1.35452
-1.03633 2.07544 -2.52904
-2.17126 1.26904 -1.58928
-1.24927 2.25085 -2.57987
-1.86165 1.63559 -1.48093
-2.06264 1.8891 -1.77914
-1.47218 1.98434 -1.34137
-0.578201 2.45294 -1.90979
-2.0609 1.48068 -1.44381
-2.339 1.98929 -1.31654
-0.451309 3.03964 -1.66024
-3.96216 0.624969 -1.97571
-2.25002 2.34567 -1.33924
-1.0038 2.59113 -1.58857
-0.955582 2.33789 -1.55217
-2.20966 1.00488 -2.19339
-0.795334 2.33194 -2.04734
-2.23631 1.05441 -1.88453
-2.17349 1.1727 -1.78913
-3.16478 0.216522 -2.45148
-1.78 1.50278 -2.43026
-0.771576 2.20871 -2.34476
-1.92003 2.43723 -1.31641
-0.648285 2.29236 -2.4887
-3.26497 2.30637 -2.0937
-3.25409 0.302216 -1.8914
-3.26089 1.09732 -1.80576
-0.898651 3.87799 -2.11381
-3.33421 0.153168 -2.03102
-1.13698 2.18253 -1.65336
-2.92404 0.410645 -2.35116
-2.48433 0.809296 -2.18704
-3.00626 0.440033 -1.8988
-1.67644 1.75037 -1.501
-2.0222 1.42917 -1.59033
-1.50186 2.24313 -1.29407
-3.61221 0.280762 -1.90488
-2.10304 2.24692 -1.31815
-2.69339 2.37177 -1.38626
-1.9912 1.91025 -1.29289
-2.15265 1.10199 -1.89746
-0.229218 2.91574 -1.78685
-3.36234 0.110565 -2.04702
-2.3177 0.945435 -2.29612
-3.11545 2.40765 -2.12884
-2.14226 1.99127 -1.30788
-1.95331 2.05194 -1.29521
-2.76575 0.549652 -2.19563
-2.89464 0.556 -1.8409
-1.7962 2.54712 -1.31359
-2.94562 0.412292 -2.29226
-2.71413 1.88254 -1.39148
-2.50475 0.753967 -2.09268
-1.07829 2.1019 -2.48018
-1.19032 3.30661 -1.69239
-0.797562 3.68906 -2.00532
-2.24599 2.74396 -1.38091
-3.10785 0.737549 -1.78543
-1.84636 2.35025 -1.32324
-0.909515 2.18002 -2.45648
-1.52118 3.13226 -1.69216
-4.10023 0.356445 -2.23847
-1.72238 1.45282 -2.27866
-0.610947 2.79111 -1.62851
-2.58452 0.796082 -2.48788
-2.08476 1.2149 -1.87783
-0.427704 2.59717 -1.90468
-1.85356 3.1774 -1.50322
-3.46104 0.0136108 -2.29105
-2.73985 0.778107 -1.75071
-2.82735 0.734741 -2.50107
-3.60165 1.00064 -1.85585
-2.26282 2.68405 -1.38019
-4.02388 1.57224 -1.96169
-3.03909 0.422882 -1.88362
-0.545013 2.44577 -2.02466
-2.7948 0.81488 -1.7906
-2.55936 2.43909 -1.38537
-3.3956 0.124176 -1.99463
-1.72136 1.42514 -1.94946
-2.60794 2.03595 -1.38137
-2.90228 0.571869 -1.83554
-2.93587 0.437714 -2.13038
-2.89105 0.456604 -2.55866
-0.699127 2.31235 -2.20035
-3.30516 2.24472 -2.14654
-3.92487 0.985443 -1.93459
-2.06012 3.08286 -2.0116
-3.62903 0.0673218 -2.07035
-1.7498 1.88696 -1.29158
-3.28053 0.385803 -1.8711
-0.765594 2.7467 -1.63826
-3.26768 0.135895 -2.20518
-2.05293 1.74716 -1.29536
-2.2346 1.07785 -2.36919
-1.2578 1.85883 -2.33678
-3.36049 1.0856 -1.80098
-3.504 0.0860901 -2.054
-1.86055 1.58905 -1.52976
-2.28024 0.984161 -2.21534
-2.65756 2.14056 -1.38284
-2.00113 1.79657 -1.77634
-3.89171 1.48257 -1.9136
-2.50697 1.04501 -1.58706
-2.99063 0.398895 -2.18778
-2.35989 1.16965 -1.68153
-1.58743 1.86136 -1.48943
-3.51897 1.37784 -1.83164
-1.05452 2.53674 -1.58526
-2.72137 2.45892 -1.4261
-2.30663 1.28232 -1.60922
-0.936905 2.09418 -2.20106
-1.74925 1.47717 -2.33916
-2.9061 0.504395 -2.09945
-3.65169 0.00421143 -2.11024
-1.70786 2.03955 -1.30135
-3.10857 0.337799 -1.94802
-2.70818 0.702026 -1.84717
-0.657303 2.4429 -2.11092
-2.14467 2.34192 -1.32783
-2.25844 1.06998 -1.82829
-2.35161 2.75937 -2.21192
-4.07674 0.346954 -2.27649
-1.81575 1.76108 -1.3187
-4.35234 0.765778 -2.45683
-2.24742 1.37619 -1.48423
-1.88091 2.10132 -2.12017
-0.671722 2.57721 -1.61513
-2.76074 0.790955 -1.78009
-1.53578 2.63602 -1.70412
-2.05392 1.14093 -2.19622
-1.30353 2.15778 -1.39797
-0.439789 2.57532 -2.04351
-3.71883 1.74713 -1.95819
-1.58943 2.51328 -2.03332
-1.86594 1.39966 -1.79689
-2.86234 2.43372 -2.28373
-0.397842 2.83658 -1.63209
-4.21689 0.993988 -2.02767
-3.05666 0.327789 -2.34488
-1.79584 1.66263 -1.73896
-1.06041 3.53525 -1.71185
-1.3481 1.73727 -2.14828
-1.8633 1.8443 -1.54384
-1.72313 2.49963 -2.20087
-2.20107 1.02457 -2.05434
-0.861313 2.95132 -1.65484
-2.84476 0.513672 -2.25079
-1.24774 3.7009 -1.7514
-0.308685 2.72409 -2.24591
-1.74187 1.85324 -1.47331
-2.3063 1.19 -1.59544
-3.51633 0.117523 -1.91045
-0.907211 3.35397 -1.68585
-4.36481 0.723053 -2.21953
-1.70833 2.59036 -1.31583
-3.66185 1.90298 -1.8974
-3.63112 -0.0291138 -2.2274
-3.29471 0.114563 -2.38915
-3.7187 0.282562 -1.95117
-3.94981 1.65018 -1.95077
-4.1927 0.462524 -2.22643
-3.65511 1.10068 -1.86072
-3.94676 1.34793 -1.93702
-1.10149 1.94894 -2.04002
-1.86386 1.60147 -1.4518
-0.385498 2.62491 -2.14539
-2.17467 2.73682 -1.3718
-0.798599 3.16 -1.64793
-0.5121 3.03278 -1.64297
-2.65173 0.634766 -2.19565
-0.70842 2.27496 -2.35184
-0.803909 2.30063 -2.04007
-2.1286 1.03561 -2.10512
-4.06596 1.13425 -1.97095
-1.75343 2.80264 -1.35744
-4.40726 1.0412 -2.22119
-1.97456 1.52545 -1.49011
-2.06503 1.88104 -1.30518
-2.45506 0.889801 -2.39199
-0.80249 2.14474 -2.60425
-1.47356 2.07626 -1.34791
-0.600784 2.50607 -1.78806
-2.26237 1.19257 -1.55144
-1.38565 1.78513 -2.36965
-0.864807 3.64658 -1.72874
-2.4084 0.890594 -1.89065
-2.47044 1.70657 -2.15768
-0.327881 2.73593 -2.32441
-0.947586 2.1394 -2.3031
-4.34575 0.953064 -2.04694
-1.34848 3.34097 -1.65954
-2.5939 0.686035 -2.14668
-2.86653 2.09183 -1.41656
-3.04906 0.479858 -1.83348
-2.19354 2.31485 -1.33136
-2.70461 0.591034 -2.0432
-2.70164 0.913666 -1.71021
-1.59634 1.5368 -2.04646
-1.09058 2.80325 -1.62107
-3.11951 0.259155 -2.02041
-3.42097 0.439545 -1.87598
-2.57953 0.857758 -1.7642
-1.41821 3.67545 -1.77617
-1.65291 2.14633 -1.2939
-2.27309 1.38947 -1.46515
-3.34038 0.172028 -1.98159
-1.68895 1.89575 -1.38673
-3.73271 1.71619 -1.88833
-3.5408 0.148956 -2.57052
-1.46162 1.65424 -1.89503
-0.932114 2.17169 -2.45162
-1.49564 2.35794 -2.04599
-3.08284 2.146 -1.50313
-2.26178 2.54462 -1.36093
-1.69789 2.58533 -1.32506
-3.99025 0.48645 -1.96754
-3.40352 1.14609 -1.81376
-4.10916 1.14273 -1.97729
-2.10101 1.40671 -1.63626
-2.24533 1.04684 -1.84184
-1.29961 3.14819 -1.63469
-1.95274 1.66879 -1.74947
-1.34512 2.49625 -1.54963
-2.20068 0.997528 -2.04557
-3.65309 0.076416 -2.05125
-2.90573 1.99487 -1.43322
-2.01614 2.7374 -1.35292
-3.24004 1.94208 -1.61538
-3.63412 1.33884 -1.85545
-2.26527 1.0744 -1.71339
-3.05582 0.35495 -2.10838
-1.8502 3.32523 -1.696
-2.20328 1.54126 -1.33451
-3.53435 1.35486 -1.82598
-2.84497 1.8945 -1.41381
-1.14783 2.00354 -2.4555
-1.10252 2.1257 -1.6989
-2.08936 2.45587 -2.18095
-1.31708 2.78217 -1.62296
-3.55414 1.5336 -1.87106
-2.96184 0.428009 -2.26491
-2.73869 0.569794 -2.35432
-0.961639 2.48044 -1.56657
-1.91603 1.43063 -1.75199
-2.21733 1.23892 -1.651
-1.38811 3.65097 -1.75554
-1.29283 2.07269 -1.66634
-1.59792 2.04993 -1.29236
-3.41994 0.335083 -1.88797
-3.14662 2.14227 -1.54235
-0.895615 2.14908 -2.15009
-3.2106 0.42981 -1.84111
-1.88716 1.45667 -1.69544
-3.48395 0.0395813 -2.36367
-4.15105 0.528168 -2.56712
-4.00945 1.27927 -1.94756
-0.813583 2.24194 -2.0016
-1.01521 2.03296 -2.04154
-1.57909 3.22803 -1.5494
-1.38208 1.71976 -1.95002
-3.78612 1.05679 -1.89869
-1.54538 2.52274 -1.92966
-2.30426 0.995697 -2.34664
-2.70113 1.85294 -1.38572
-1.70625 2.39694 -1.30632
-0.529892 2.82562 -1.6284
-1.79604 2.45328 -1.3106
-1.22169 1.86407 -1.98722
-0.847946 2.18747 -2.23385
-0.235687 2.84222 -2.24583
-3.95088 0.246307 -2.11412
-2.03894 1.26755 -2.43453
-1.82759 3.28879 -1.64115
-3.69411 1.25314 -1.88098
-2.88541 0.537811 -2.49413
-1.84914 1.68845 -1.49387
-2.64372 2.51416 -2.54987
-2.14531 2.01959 -1.7596
-0.646255 2.50931 -1.73944
-1.69209 2.59 -2.08213
-3.54131 1.99326 -1.8523
-2.2354 1.70325 -1.31326
-1.43182 1.73035 -2.31825
-4.33806 0.846039 -2.07386
-3.83588 1.8197 -1.93738
-1.99701 1.29532 -2.39851
-2.9919 0.365692 -2.47326
-1.85481 1.56174 -1.55515
-0.859238 3.28891 -1.66644
-1.11591 3.9039 -1.78267
-2.1067 2.64706 -1.35031
-0.263412 2.85291 -1.7987
-0.971359 3.88068 -1.93351
-1.02336 2.01517 -2.01951
-3.48074 1.45737 -1.87491
-0.690994 2.60434 -1.62811
-1.86891 1.6481 -1.70918
-2.86504 0.484955 -1.94328
-1.86479 1.9339 -1.28112
-1.58531 1.62024 -1.78284
-1.60658 1.85245 -1.4404
-3.79997 0.995789 -1.90639
-2.04973 1.85776 -1.29486
-0.917252 2.24045 -1.66769
-0.402847 2.61429 -2.28071
-1.38673 2.30862 -1.9475
-2.47084 0.986877 -1.64661
-2.14589 1.396 -1.52214
-1.63647 1.61841 -2.4309
-2.68643 0.695282 -1.8836
-0.418716 2.98227 -1.64371
-2.19487 1.83453 -1.29683
-2.65851 2.52106 -2.54842
-0.613358 2.3074 -2.43703
-1.1906 2.20346 -2.56702
-3.71019 0.488922 -1.9044
-1.83504 1.78604 -1.37073
-2.04591 1.17691 -2.23559
-0.651169 2.79736 -1.6313
-3.99165 0.503479 -1.97584
-2.81313 0.534698 -1.91578
-3.00194 0.461548 -2.07702
-1.3777 2.38019 -1.87631
-1.20712 1.88492 -2.30706
-2.15329 1.49698 -1.39153
-0.826096 2.64224 -1.60241
-1.79704 2.34427 -1.2989
-1.89433 3.16333 -1.53192
-0.958221 2.84036 -1.60855
-2.58846 0.754211 -2.43562
-3.06316 0.789001 -1.76271
-1.18694 1.88089 -2.15842
-1.64766 1.70673 -2.53405
-1.90852 1.78839 -1.54333
-1.78807 2.55292 -1.3276
-1.65468 1.58368 -1.79207
-1.15726 2.19308 -1.70671
-0.275681 3.01248 -1.73631
-1.5117 2.15787 -1.28808
-0.955521 3.89923 -2.11387
-3.33188 1.24472 -1.83094
-2.57253 0.703766 -2.24984
-2.4055 0.913147 -2.34894
-3.70494 1.59598 -1.90131
-3.15631 0.299683 -1.94199
-1.54396 1.57773 -1.99229
-1.43398 2.13116 -1.3274
-2.24828 1.04166 -2.33446
-4.01187 1.48608 -1.9534
-4.06151 0.49472 -2.03592
-1.81256 1.61115 -1.77293
-1.45998 1.95233 -1.49629
-1.6548 2.9874 -1.68575
-2.18968 2.20099 -1.32006
-1.53871 3.65381 -1.76239
-0.574234 2.35971 -2.35071
-2.62093 2.49298 -1.40469
-1.95915 1.32019 -1.85373
-3.22379 0.77124 -1.76938
-2.12474 1.49051 -1.36201
-0.759003 2.63257 -1.61108
-1.21277 2.92828 -1.64061
-3.20345 0.335663 -1.89133
-4.07083 1.15106 -1.96306
-1.00461 2.1312 -2.12516
-3.44688 2.05893 -1.79515
-2.69066 1.9588 -1.38487
-0.566818 2.87076 -1.62347
-2.43497 2.15439 -2.00211
-3.54736 1.81271 -1.83787
-3.11589 0.289764 -2.04104
-3.93828 1.59818 -1.94117
-2.38976 1.16132 -1.63269
-1.38899 3.38184 -1.67269
-2.36465 2.19928 -1.95137
-0.950882 2.07748 -2.29319
-2.23602 2.65125 -1.37121
-1.4516 2.39761 -1.95148
-0.415176 2.56601 -2.12798
-1.10176 2.15164 -1.55273
-2.03877 1.34769 -1.57561
-4.40819 0.745209 -2.25149
-0.583115 3.42441 -1.91105
-0.745895 3.44617 -1.69532
-3.64566 0.303741 -1.90864
-2.40303 1.41031 -1.37552
-1.33589 2.43231 -1.34726
-2.27132 1.34683 -1.40159
-1.60381 1.52832 -1.99456
-3.45473 0.697693 -1.85296
-3.34645 0.694183 -1.81535
-0.993423 2.40329 -1.52979
-1.88957 1.56052 -1.51263
-2.01715 1.4743 -1.50316
-1.65331 1.55847 -1.73583
-1.85384 2.24707 -1.32259
-0.863876 2.13324 -2.44879
-2.04329 3.01831 -1.40601
-3.45992 1.03391 -1.82621
-3.13554 0.278809 -2.36142
-0.613922 2.68546 -1.6453
-0.952652 3.19177 -1.65413
-1.05566 2.26556 -1.50119
-2.91319 0.534149 -2.10574
-2.18698 1.04633 -1.9403
-0.502182 2.48294 -2.0397
-0.578079 3.37082 -1.76083
-4.14981 0.898102 -2.00073
-0.589584 2.3353 -2.4412
-2.20291 2.44092 -1.34353
-1.80302 1.59439 -1.54527
-2.39455 1.25418 -1.41411
-2.53857 0.776154 -2.05253
-1.10188 2.24707 -1.49827
-1.35623 3.3475 -1.68105
-1.0464 2.29529 -1.46214
-4.29272 1.27594 -2.02001
-3.43724 1.25705 -1.8072
-2.11797 2.29813 -1.32364
-4.00235 1.43683 -1.94847
-4.15822 1.09509 -1.99768
-2.36501 1.73566 -1.34088
-3.82222 0.285095 -1.9728
-0.857193 3.34439 -1.68859
-3.24272 1.74359 -1.65909
-2.79753 0.974823 -1.76472
-1.69963 3.44531 -1.68048
-2.34641 2.22958 -1.99913
-0.398697 2.78055 -1.6891
-4.32394 0.841736 -2.07779
-2.241 2.13034 -1.31448
-2.48224 2.55914 -2.56962
-2.26329 1.54355 -1.33592
-0.550446 3.22403 -1.65364
-1.01418 2.04135 -1.89939
-3.46437 0.0303345 -2.348
-2.33195 0.923767 -1.77996
-2.24619 1.41348 -1.39414
-1.84669 1.85687 -1.592
-0.357574 2.85135 -1.64675
-0.554901 3.33392 -1.69142
-3.85794 0.191101 -2.10904
-3.33748 0.269379 -2.54198
-2.59213 0.691956 -2.09142
-2.25497 2.38879 -1.33926
-1.65205 1.53656 -2.1185
-1.0452 2.71597 -1.60193
-2.49034 0.839783 -1.72803
-0.959732 3.80191 -1.75702
-3.61015 1.18845 -1.85823
-3.66948 1.69937 -1.92926
-1.4991 1.79413 -1.68587
-0.96553 3.0777 -1.64828
-3.46141 0.0540466 -2.43777
-3.31754 0.652496 -1.81656
-1.94897 1.2934 -1.88753
-1.0065 2.84427 -1.62576
-2.85796 0.60965 -1.80337
-3.96704 0.485626 -1.97437
-0.606857 2.62607 -1.61922
-3.30022 0.590973 -1.81369
-1.3047 3.32693 -1.68053
-2.01714 2.40292 -1.32721
-1.5695 1.96332 -1.3291
-2.07123 1.09497 -2.14864
-0.88768 2.11166 -1.89165
-1.3013 2.84927 -1.49016
-2.459 1.496 -1.38665
-2.39415 2.39493 -2.57375
-1.75591 2.43005 -1.30712
-3.80995 1.34738 -1.89795
-3.2099 0.405396 -1.81232
-1.15872 1.94485 -2.39281
-2.67387 0.806915 -1.74912
-2.95061 2.54431 -2.06696
-2.22026 1.9053 -2.06409
-1.55078 2.70041 -1.73003
-0.309326 2.73209 -2.29105
-2.19174 1.15378 -1.74659
-0.287582 2.72998 -1.9557
-2.67703 2.44949 -1.4089
-2.38542 0.934113 -2.35002
-1.56587 2.53186 -1.9116
-1.90379 2.14664 -1.31026
-2.54829 1.76706 -2.20171
-3.47951 1.33521 -1.84241
-1.11304 1.95291 -2.29184
-1.51225 2.03159 -1.3503
-3.21793 2.33304 -2.1041
-3.86198 1.54666 -1.91554
-3.85609 0.93634 -1.92757
-0.92485 3.42792 -1.68412
-1.65659 1.54825 -1.84746
-3.38847 0.867065 -1.80618
-3.44768 1.10556 -1.82539
-1.82161 1.63815 -1.79881
-2.90018 0.514679 -2.05452
-1.44687 1.6994 -2.30397
-1.91348 3.15704 -1.49303
-0.647202 2.38617 -1.84525
-2.24535 2.45145 -2.38682
-1.15508 2.00821 -1.74473
-2.55103 1.84296 -1.37049
-3.70418 1.50058 -1.86232
-3.20094 0.894318 -1.78497
-2.54666 2.259 -1.36968
-1.27855 1.91476 -1.73771
-1.30609 1.77231 -2.14608
-0.908234 2.11899 -2.07951
-3.50917 1.58755 -1.85573
-3.99185 1.54861 -1.95905
-2.80968 2.25867 -1.41254
-2.17441 1.39374 -1.46557
-0.717575 2.39984 -1.74939
-1.11404 1.9487 -2.19237
-0.982819 3.8772 -2.00161
-1.11874 2.06488 -2.28912
-0.562881 2.55453 -1.74697
-2.55466 0.736176 -2.09828
-0.206909 2.91809 -1.9299
-2.8084 2.19772 -1.40734
-2.59599 2.6077 -1.41486
-1.95921 1.65161 -1.84322
-3.09399 2.05145 -1.53162
-0.816101 2.15799 -2.50276
-1.75459 1.40604 -2.22196
-0.657074 2.44839 -1.7984
-1.89107 2.86417 -1.379
-2.31476 1.69424 -1.33594
-2.31636 0.992157 -1.79578
-1.38899 2.7406 -1.42961
-1.60077 3.06732 -1.68938
-2.01973 1.19305 -1.89473
-3.77272 1.78201 -1.9409
-4.20619 1.3385 -2.00269
-0.747284 3.55646 -1.72705
-0.855499 2.25183 -2.01298
-1.93365 1.32001 -2.35104
-2.00929 1.59818 -1.39699
-1.2542 2.84885 -1.6346
-1.06216 3.26392 -1.66902
-0.670822 3.63541 -2.06499
-3.98714 0.996002 -1.95736
-3.88631 1.4451 -1.92044
-1.53003 2.97455 -1.46618
-0.306793 3.07535 -1.90609
-1.10588 1.9852 -1.8941
-1.30063 1.80405 -1.89508
-3.33412 1.90421 -1.68348
-1.63634 3.13602 -1.53279
-4.3356 1.15576 -2.04561
-0.668457 2.85672 -1.62834
-3.40729 0.154175 -1.94762
-2.127 1.82367 -1.29853
-0.796585 2.57355 -1.62451
-0.565216 2.78012 -1.61089
-4.11234 1.23926 -1.97553
-1.7563 3.36453 -1.63839
-3.746 1.88907 -1.91541
-3.18951 2.3461 -2.04472
-0.279709 3.01923 -1.75287
-0.291397 2.73947 -1.89483
-3.70198 1.27887 -1.8772
-1.31429 1.86429 -1.79613
-3.85756 0.145447 -2.29654
-1.00908 2.30276 -1.49773
-0.895172 3.87976 -2.12498
-0.998123 2.94229 -1.62938
-3.95554 0.437164 -1.99205
-1.94376 1.86432 -1.47127
-3.18771 0.354095 -2.16339
-3.8512 0.197266 -2.40694
-1.3022 2.42209 -1.38332
-2.24968 1.98462 -1.92615
-3.31483 2.23346 -2.09647
-3.95651 0.202789 -2.22092
-2.79453 0.515778 -1.92487
-1.58328 3.31387 -1.67425
-1.51816 2.42856 -2.05188
-2.4688 0.85376 -2.34734
-0.921204 3.8165 -1.87153
-1.70219 1.54251 -1.79557
-1.54805 1.6752 -1.7943
-2.46577 0.817535 -1.94514
-3.96135 1.18851 -1.94966
-4.24855 1.21362 -2.01696
-0.689438 2.58353 -2.20347
-0.242569 2.84445 -1.92709
-3.19598 2.30798 -2.12405
-2.85216 0.538086 -2.34395
-3.77405 0.488831 -1.92372
-2.32956 2.2673 -1.8743
-1.7587 3.12842 -1.48678
-1.08775 1.98416 -2.09351
-2.30956 1.30331 -1.44386
-3.02261 0.986389 -1.78074
-1.4586 1.64053 -2.15221
-1.01817 2.00723 -2.03614
-1.118 2.02271 -1.87358
-1.30946 1.94495 -1.70635
-1.26173 2.28671 -1.75636
-0.944916 2.24933 -1.68726
-3.91943 1.5654 -1.94036
-3.4465 0.293793 -1.8809
-1.19234 1.87305 -2.095
-2.50656 0.940155 -1.69042
-1.55016 1.55417 -2.00109
-1.21159 2.34464 -1.42844
-4.16861 0.628693 -2.05022
-3.7952 0.793915 -1.90758
-1.20091 2.0914 -1.73695
-2.00378 2.6088 -1.33828
-3.21449 0.942505 -1.78139
-1.02652 2.03976 -1.86002
-3.73245 0.107788 -2.33763
-1.74062 2.42685 -2.18222
-4.37276 1.24326 -2.05232
-3.2245 0.208588 -2.05978
-1.81459 1.78491 -1.72608
-1.69113 1.49252 -2.00374
-1.38309 3.36206 -1.63939
-2.06712 2.77029 -1.35686
-0.806442 2.23807 -2.03959
-1.36163 2.25671 -1.91363
-2.45558 1.00113 -1.59427
-1.81392 1.39102 -1.85531
-1.70375 1.44516 -2.04768
-3.06189 0.878265 -1.75537
-3.34761 0.345184 -1.883
-2.75511 0.559845 -2.0413
-1.01131 2.89273 -1.62174
-2.09599 1.20447 -1.79688
-1.47816 3.44934 -1.68689
-4.37971 0.77063 -2.42704
-2.05539 1.6351 -1.30154
-2.33836 2.27243 -1.86729
-2.97751 0.504852 -1.7944
-0.957794 3.88205 -2.05012
-3.67873 1.03818 -1.87986
-1.08778 2.22086 -1.52579
-3.09995 0.361115 -2.10374
-1.45085 1.73096 -2.36568
-1.66252 1.88174 -1.4049
-1.16924 2.14761 -1.45456
-2.12605 1.97794 -1.75423
-2.84332 0.500793 -2.19059
-2.15704 1.04849 -2.14835
-2.373 2.13235 -2.0617
-0.927521 2.11386 -2.37961
-2.51787 1.68341 -1.35687
-1.16478 3.2261 -1.66606
-2.03064 1.4137 -1.79638
-1.68362 2.98196 -1.63548
-1.9572 1.30209 -1.851
-0.368759 2.60205 -2.00283
-0.824615 3.4343 -1.68569
-0.498871 2.47855 -2.25182
-0.758347 2.20523 -2.44626
-3.85986 0.63562 -1.93913
-3.50459 0.547546 -1.86414
-2.93723 0.503998 -1.89133
-0.799484 2.19757 -2.29857
-1.81075 2.94815 -1.93325
-0.581085 2.41983 -2.00437
-2.13037 1.08969 -1.89994
-2.617 0.657227 -2.1435
-1.49051 2.68475 -1.63689
-3.39871 1.55106 -1.80043
-1.84721 1.68002 -1.43024
-4.3607 0.696625 -2.25227
-1.08974 2.15778 -1.5916
-1.01732 2.11606 -1.74702
-2.13852 1.13696 -2.34108
-0.850143 2.19067 -1.98978
-2.38634 0.861053 -1.74185
-1.99147 1.78882 -1.60713
-3.80576 0.197998 -2.43648
-0.946243 2.13855 -1.82933
-2.72603 0.624634 -2.46191
-1.45885 2.2951 -1.29123
-3.95692 1.52682 -1.94697
-1.01663 2.04019 -2.09613
-1.55916 3.03683 -1.67087
-1.97604 1.69449 -1.88385
-0.303818 2.86258 -1.64786
-4.47211 0.95224 -2.21467
-3.05128 2.15326 -1.48205
-3.91977 0.581696 -1.95492
-3.41145 1.30051 -1.85569
-2.79861 0.500153 -2.49053
-1.2515 2.70966 -1.60414
-0.846039 2.1868 -2.08877
-1.6783 3.43732 -1.68119
-2.96446 0.654755 -1.77272
-1.29427 2.29367 -1.75855
-4.20665 1.18973 -2.001
-2.85664 0.696777 -1.77275
-3.22441 0.457336 -1.88387
-1.55598 3.01205 -1.46752
-0.456863 2.99109 -1.63876
-4.51367 1.02637 -2.27338
-2.76767 1.80832 -1.40997
-4.44392 1.29388 -2.09062
-3.65517 0.882233 -1.86526
-4.09663 1.04239 -1.98831
-0.274673 2.74307 -1.92825
-3.71046 0.0393372 -2.1345
-1.89859 1.41064 -1.79116
-3.68001 1.9837 -1.91808
-0.279312 2.74286 -1.91174
-2.70143 1.79355 -1.39505
-2.81381 0.526886 -2.35061
-1.23555 2.14371 -1.4798
-3.86665 0.32901 -1.98397
-2.20705 2.89893 -1.3936
-3.82567 0.248505 -2.11814
-4.01216 0.692017 -1.97797
-1.65164 1.77902 -1.59587
-2.55397 2.28476 -1.3661
-3.77135 1.64584 -1.90986
-2.34026 0.928528 -2.28725
-0.914871 3.78604 -1.78288
-1.84825 1.43076 -2.40756
-1.61977 1.52844 -2.15614
-2.89743 2.10446 -1.42633
-0.823181 2.11523 -2.52239
-3.45268 0.249908 -1.88889
-1.19754 1.86429 -2.13366
-2.15685 1.24265 -1.74088
-2.15703 1.85757 -2.10293
-2.2186 1.28799 -1.55701
-0.90007 2.45789 -1.54359
-0.545807 2.63361 -1.68375
-2.40529 1.19467 -1.45965
-0.750656 2.81049 -1.61409
-3.07216 0.738525 -1.78631
-1.54842 1.56497 -2.18541
-1.2545 3.16446 -1.66289
-2.60211 2.70773 -2.4423
-1.25926 3.17648 -1.66359
-1.78026 1.82376 -1.31948
-1.35924 2.25284 -1.30161
-3.91251 0.28656 -2.42454
-2.96072 0.447449 -1.90174
-1.26111 2.14905 -1.44643
-1.24287 2.07843 -1.5442
-2.15382 1.59332 -1.3134
-2.35045 0.888062 -2.14835
-0.82373 2.3493 -1.65916
-4.30615 1.29221 -2.03175
-1.43808 1.96329 -1.57428
-3.77272 0.574615 -1.93537
-2.73468 1.71634 -1.39898
-3.554 0.44043 -1.90141
-1.2914 1.91541 -1.70697
-0.571899 3.39731 -1.84913
-1.48599 2.0112 -1.38995
-2.14186 1.21289 -1.7382
-2.02855 1.52002 -1.38497
-0.502792 2.53879 -1.88813
-3.8978 0.200653 -2.11103
-1.41402 1.81662 -2.44431
-2.34731 1.00687 -1.76746
-2.40919 1.75302 -1.33275
-1.46008 2.13867 -1.29846
-0.895645 2.22214 -2.03334
-3.56467 1.08905 -1.84261
-3.73959 0.0934448 -2.43533
-1.30145 1.78076 -2.20206
-2.35349 0.914673 -1.94722
-1.4111 2.5864 -1.40294
-1.89528 2.69141 -1.34643
-1.25252 3.39554 -1.69534
-4.03067 0.85144 -1.97033
-1.32091 2.17447 -1.38136
-3.51534 0.636383 -1.87883
-2.61279 0.920837 -1.66511
-1.96532 2.2312 -2.15378
-1.76103 1.44394 -1.81909
-0.706772 2.44867 -1.74859
-2.93315 0.438354 -1.98894
-1.01199 3.24252 -1.6635
-2.24985 1.13141 -1.78999
-1.05316 3.5058 -1.70628
-4.23625 1.34863 -2.01373
-0.798904 2.45114 -1.64726
-0.922882 2.11734 -2.20984
-1.22414 2.02124 -1.6563
-1.75958 3.37109 -1.64868
-0.844315 2.3544 -1.63974
-3.23706 0.271912 -2.32233
-1.94638 1.43646 -1.74085
-4.01913 0.735321 -1.98904
-0.954453 2.09479 -2.14503
-1.56093 1.6868 -2.42755
-1.54507 2.46539 -1.97444
-0.964142 2.78964 -1.60941
-1.36086 2.48245 -1.36462
-1.48601 1.62436 -1.97857
-1.71242 1.49994 -1.8493
-4.01019 0.543976 -1.98195
-0.853012 2.8952 -1.63977
-1.60883 2.53604 -2.02807
-1.86467 1.28467 -2.09562
-2.8521 2.30869 -1.42197
-3.42688 0.0178223 -2.23546
-1.54523 1.98779 -1.42104
-0.556839 2.7388 -1.62612
-1.03471 3.50519 -1.72192
-1.42685 1.73477 -2.338
-3.51299 0.128296 -2.07603
-0.460312 2.53775 -2.19459
-0.950272 3.86987 -2.0173
-1.91118 1.56354 -1.46109
-1.32408 1.86813 -1.75167
-2.46603 1.71158 -2.18261
-1.66019 1.65094 -1.74539
-0.871613 3.28452 -1.67749
-0.711349 2.60233 -1.61292
-0.549545 2.44662 -1.99154
-1.21179 2.16849 -1.68367
-0.312286 2.86081 -1.69586
-1.79503 2.39185 -2.19427
-0.217834 2.7912 -2.04513
-2.2056 1.17798 -1.74993
-2.01653 1.93954 -1.29158
-0.855652 2.159 -1.85425
-0.952011 3.34476 -1.67944
-1.24432 2.4324 -1.49353
-1.67076 1.48129 -2.19901
-3.15009 2.34805 -2.01748
-0.363205 2.69861 -1.8512
-2.17351 1.92734 -2.04204
-4.19485 1.08575 -2.00489
-4.00519 0.835724 -1.96099
-1.92593 2.18082 -1.30845
-1.37086 1.70782 -2.15646
-1.85799 2.04642 -1.30524
-3.84972 0.98233 -1.93042
-3.79059 0.679749 -1.91664
-2.53477 1.0831 -1.56865
-2.8475 0.75119 -1.78324
-1.90938 2.04654 -1.28997
-2.90089 0.470856 -2.20775
-1.34129 3.01212 -1.65948
-0.927963 2.64755 -1.62852
-1.50276 1.62421 -1.94633
-1.91685 1.24649 -2.14916
-3.41568 0.759979 -1.81675
-3.9816 0.266937 -2.11923
-2.25752 0.995361 -2.28476
-3.66478 1.58395 -1.92979
-1.35526 2.0473 -1.49509
-3.71817 0.948822 -1.89221
-0.838943 3.7402 -2.07897
-3.90257 0.956238 -1.93477
-2.64253 1.81989 -1.36945
-0.500443 2.92349 -1.61794
-3.66138 1.45105 -1.87238
-1.65039 2.24957 -1.29729
-3.00533 0.45047 -2.27912
-3.00652 2.08978 -1.46324
-1.55522 3.50842 -1.70112
-1.99698 1.18729 -1.99586
-2.05882 2.1951 -1.30985
-1.51198 1.69302 -2.3827
-3.65303 0.197968 -1.94307
-4.14603 1.05582 -1.99051
-4.45605 0.838898 -2.38908
-1.45787 2.54782 -1.73748
-1.20648 1.89795 -1.99332
-2.17166 1.45749 -1.34416
-2.95537 0.38858 -2.54095
-1.79851 2.25235 -1.29025
-0.836365 2.89099 -1.60697
-2.78473 1.79764 -1.40607
-1.40054 1.68576 -2.13586
-2.44991 1.34921 -1.44543
-1.99046 2.25027 -1.31988
-2.56035 2.57004 -1.40295
-1.16118 2.28458 -1.43609
-3.27623 2.26721 -2.0327
-3.81197 1.44476 -1.8987
-2.05641 1.69498 -1.29746
-0.756851 2.54538 -1.61238
-3.95235 0.6008 -1.96024
-1.15791 1.90457 -2.24218
-2.58292 2.23056 -1.36538
-2.01199 2.1376 -1.3049
-3.14792 0.214752 -2.47094
-1.75357 1.49905 -1.79715
-2.6488 0.635925 -2.04794
-0.69545 2.61026 -2.34459
-4.11678 1.53867 -1.99361
-1.96535 1.75198 -1.79077
-2.8049 2.00253 -1.40373
-1.20544 2.83649 -1.632
-1.75554 2.69058 -1.3315
-2.12376 1.87766 -1.99707
-0.799835 2.14325 -2.54548
-1.99533 1.79169 -1.7677
-2.64497 2.035 -1.37495
-0.305801 2.83502 -1.73961
-3.20198 2.19601 -1.58424
-0.845245 2.13531 -2.53077
-0.415253 3.18161 -1.75021
-2.76622 0.536591 -2.44641
-0.301178 2.71005 -1.98847
-2.18724 1.04178 -2.24155
-2.54176 1.94077 -1.35954
-2.44118 1.84409 -1.35804
-3.64864 1.0015 -1.86445
-1.05309 2.33032 -1.46797
-2.63612 0.677795 -2.00032
-0.953751 3.23358 -1.66218
-1.89952 1.40326 -2.43993
-3.30827 1.09851 -1.80126
-3.29823 0.123291 -2.35329
-3.60628 0.1315 -2.08094
-1.65004 1.9996 -1.30209
-0.642899 2.81497 -1.60677
-2.53609 0.735382 -2.17839
-4.08977 0.412506 -2.48658
-2.26448 2.45364 -1.34776
-2.93372 0.470184 -2.21729
-1.91408 3.21371 -1.62699
-1.56967 1.79639 -1.5967
-1.74239 2.00034 -1.30421
-3.35434 0.191528 -1.94788
-2.04057 2.30621 -2.17554
-1.37614 1.81381 -1.7551
-1.88989 1.3244 -1.98327
-1.24467 2.16159 -1.78822
-1.92493 1.85635 -1.465
-3.8201 0.609711 -1.94147
-2.73398 0.576019 -1.98811
-0.74559 2.4487 -1.65607
-3.55492 0.702576 -1.85907
-1.36992 2.0513 -1.46104
-4.21155 1.39078 -2.00491
-1.90385 1.27826 -2.24599
-2.14256 1.16278 -1.83099
-1.45526 2.79004 -1.63605
-1.84001 1.41995 -1.84763
-3.69957 0.601868 -1.90657
-2.54955 0.747192 -2.04095
-2.10883 2.49051 -1.3439
-2.6846 2.14716 -1.3919
-1.79994 1.55713 -1.64295
-3.53757 0.303558 -1.89504
-4.39415 1.18445 -2.06473
-1.82275 1.72205 -1.76376
-2.55196 0.73645 -2.1378
-2.62798 2.07751 -1.39384
-3.15717 0.228851 -2.44901
-1.97702 2.82556 -1.36559
-2.60451 2.64828 -1.41754
-4.08548 0.759247 -1.97947
-3.29147 1.20853 -1.79617
-2.25143 1.4053 -1.35049
-2.72565 0.566833 -2.44275
-0.841354 3.39279 -1.68183
-2.31163 2.29855 -1.33493
-3.15919 0.251617 -2.03839
-0.241852 2.92496 -1.79718
-2.55667 0.701202 -2.13096
-1.84862 2.85046 -1.35365
-3.30183 0.201294 -2.51623
-2.10495 2.89847 -1.38435
-3.05499 0.292023 -2.65698
-1.78819 1.75296 -1.70425
-1.29404 3.68814 -1.75753
-0.558044 2.60425 -1.69802
-2.63037 1.93546 -1.3828
-1.6595 1.55289 -1.79337
-0.774353 3.02335 -1.6771
-0.985352 2.09369 -2.11428
-2.29198 1.85742 -1.31536
-3.81929 0.133575 -2.153
-2.34622 1.79926 -1.31722
-1.3035 1.93356 -1.73722
-3.55238 1.3869 -1.84335
-3.01122 2.24103 -1.46001
-2.46585 1.0546 -1.56082
-4.36658 0.809692 -2.47561
-2.43794 0.839539 -2.09938
-1.15228 2.61932 -1.60229
-3.45305 0.130585 -1.93634
-3.10362 0.637115 -1.78407
-3.39626 2.12872 -1.72366
-1.17508 2.51611 -1.59648
-1.04355 3.85437 -1.76501
-4.0345 0.257263 -2.25797
-1.01033 2.01743 -2.33077
-2.41136 1.54517 -1.3503
-4.19232 1.44598 -2.00107
-2.11005 1.49698 -1.40253
-1.04448 2.01862 -1.86065
-3.84212 1.49637 -1.90125
-1.10687 3.61145 -1.72739
-1.99568 2.7048 -1.35296
-1.2865 2.22522 -1.80922
-0.909546 2.24454 -1.69578
-3.37544 0.786926 -1.82932
-0.837814 2.14514 -2.37241
-3.41733 0.641266 -1.85723
-3.15477 0.225769 -2.39863
-3.14029 1.03406 -1.83118
-1.39101 1.90021 -1.77343
-1.90642 1.64069 -1.75177
-1.39037 2.33432 -1.97264
-2.22371 1.12277 -1.7982
-2.70183 0.692108 -2.44601
-1.43692 1.6702 -2.06443
-0.516617 2.51608 -1.90155
-2.30666 2.19424 -1.33087
-4.08034 0.419373 -2.1258
-3.27414 0.263184 -2.45469
-2.211 2.7601 -1.37016
-3.84294 0.291046 -1.95621
-0.987671 3.81577 -1.75081
-1.82167 2.47034 -1.3471
-2.72804 0.656219 -1.86586
-3.81252 1.67422 -1.91964
-0.969589 2.05197 -2.29227
-2.1982 1.60587 -1.3155
-2.46996 1.62131 -2.16264
-2.40038 2.64545 -1.38383
-1.14265 2.75125 -1.62856
-3.23558 0.45694 -1.83338
-1.04999 2.04178 -2.38202
-1.35782 2.73337 -1.62784
-2.04453 1.21597 -2.3433
-2.86461 0.48111 -2.34898
-0.744751 2.38846 -2.06327
-1.23862 1.87869 -1.936
-0.654175 2.56491 -1.61294
-1.25504 1.85812 -2.30622
-2.63986 1.70493 -1.38379
-1.18721 3.776 -1.7536
-0.308243 2.70676 -2.19922
-3.12953 0.917145 -1.77438
-0.966263 2.93652 -1.61208
-0.236343 2.9498 -1.91294
-1.69365 2.75439 -1.92726
-1.41084 1.68442 -2.19577
-4.4585 0.853333 -2.24055
-2.05264 1.60953 -1.33968
-2.01663 2.54245 -1.34616
-3.71712 0.627045 -1.90915
-1.2516 3.05136 -1.6339
-3.46902 1.21954 -1.82912
-3.15266 1.98636 -1.56441
-1.90442 1.99783 -1.28938
-3.06303 0.429596 -1.85337
-0.405441 2.58633 -2.09238
-0.466461 2.74414 -1.61435
-3.18715 0.358856 -2.17953
-3.44087 0.931885 -1.81217
-2.60944 1.85229 -1.36667
-1.00896 3.16153 -1.66575
-2.12413 1.41995 -1.39577
-2.56767 0.734009 -2.30846
-0.572891 2.36649 -2.3883
-2.25027 1.42343 -1.39804
-0.767563 2.72794 -1.61104
-0.692902 2.31113 -2.24336
-1.90935 1.32147 -1.94688
-0.575516 3.215 -1.67069
-1.81113 1.36917 -2.27518
-2.01552 2.03452 -1.29568
-0.764969 2.59207 -1.62222
-1.72929 1.40225 -2.1433
-1.70924 2.40631 -2.19823
-2.59691 0.688904 -2.04387
-3.0652 0.292389 -2.54771
-2.3492 0.950287 -1.89874
-1.35371 1.84586 -1.79627
-3.2231 0.727753 -1.79544
-0.751587 2.54984 -1.63847
-0.421875 2.56375 -2.09683
-0.910965 2.83249 -1.61005
-2.90492 0.596222 -1.79377
-1.14622 3.44705 -1.69726
-0.688675 2.62683 -2.38598
-1.06754 1.99872 -1.91162
-0.567612 2.45261 -1.94567
-1.87891 2.11462 -1.32729
-1.39037 3.37033 -1.64632
-3.31358 1.68854 -1.71269
-1.53308 3.50629 -1.721
-3.98988 0.359406 -2.06332
-1.1891 3.18668 -1.65511
-1.96793 1.22501 -2.25026
-1.30228 3.21191 -1.67961
-1.756 1.69412 -1.53175
-2.96649 2.18478 -1.44307
-1.05675 1.99631 -1.95126
-0.964355 2.68845 -1.63668
-2.03368 1.41483 -1.54021
-1.49403 1.67517 -2.3154
-2.29709 1.04242 -1.7879
-1.07175 2.05298 -1.80339
-0.639008 2.34015 -2.18543
-2.01672 1.67102 -1.34836
-3.34669 0.644684 -1.82674
-1.68617 1.52243 -1.88684
-0.857483 2.9899 -1.63864
-2.17549 1.01346 -2.08121
-0.216263 3.05286 -2.01704
-1.61937 1.49173 -2.09814
-3.25587 0.134644 -2.24108
-3.12857 1.97226 -1.56183
-2.50507 1.00244 -1.63491
-0.7276 2.31955 -2.21635
-2.66072 1.64682 -1.40545
-2.08205 1.28598 -1.77517
-3.75058 0.146942 -2.09157
-1.2552 3.16458 -1.67345
-2.47113 0.794159 -2.14746
-1.88423 2.29517 -1.32153
-2.51595 2.08539 -1.34934
-1.81032 1.59222 -1.50768
-1.82765 1.6377 -1.48676
-0.965454 2.38705 -1.50747
-3.40303 0.0390625 -2.24426
-0.908768 3.29611 -1.66478
-4.26096 1.013 -2.02849
-3.64423 0.557495 -1.90508
-0.704132 3.30969 -1.66904
-2.19891 1.90179 -2.10065
-1.25302 2.73453 -1.6033
-0.86705 2.35519 -1.60592
-2.85966 0.501312 -2.14911
-0.653854 3.28079 -1.66536
-1.64774 1.49512 -2.09171
-1.38606 1.72461 -2.16231
-2.89015 0.439362 -2.34207
-1.75343 2.66898 -2.10501
-1.15959 3.68463 -1.73953
-3.99879 0.446869 -2.01074
-1.5612 2.39447 -1.29713
-4.39659 1.23129 -2.06097
-1.56131 1.78186 -1.75391
-0.707367 2.89218 -1.6371
-2.45381 1.09106 -1.54343
-0.507828 2.83743 -1.61629
-1.11919 1.95145 -1.88704
-1.31207 1.75186 -2.08768
-4.0242 0.391632 -2.07178
-1.39613 2.00668 -1.5327
-0.703171 2.99283 -1.63033
-2.86304 0.476501 -2.38519
-3.52788 1.61923 -1.87312
-3.73343 0.107605 -2.48402
-1.78409 1.44485 -1.87201
-3.1575 0.253326 -2.00354
-1.64891 1.75076 -1.4524
-2.99496 0.920868 -1.75822
-2.44858 0.960114 -2.48595
-3.30122 0.693512 -1.8063
-3.56039 0.536285 -1.8881
-2.56888 1.86935 -1.36043
-0.169724 2.85715 -2.04996
-0.211243 2.79977 -2.09386
-2.56813 2.4769 -2.55051
-1.55168 3.14438 -1.67775
-3.60286 1.30624 -1.84583
-3.64191 1.43829 -1.86823
-1.95265 2.21066 -1.31488
-2.30202 0.943542 -2.14743
-0.795746 2.18463 -2.53065
-1.11104 2.19852 -1.70866
-4.00426 0.298309 -2.14771
-0.214615 2.77954 -2.00462
-1.18172 2.24619 -1.42066
-3.20462 2.34372 -2.13241
-2.18506 1.4437 -1.31823
-4.17339 0.472076 -2.18124
-2.04776 2.72836 -1.34639
-1.21608 2.13382 -1.49831
-0.152084 2.90842 -1.9895
-1.17415 1.90561 -2.34894
-1.86253 2.28979 -2.1434
-3.33798 2.22787 -2.06697
-2.2021 1.33469 -1.4902
-0.884323 2.25006 -2.23357
-3.09012 0.25827 -2.58345
-0.464401 2.89151 -1.62755
-1.84906 1.64023 -1.4462
-3.29012 2.27414 -2.16329
-1.22366 1.99838 -2.4991
-3.45692 0.191956 -1.89736
-1.27071 2.16086 -1.3526
-1.03549 3.71063 -1.74377
-0.314789 3.02283 -1.69767
-2.30719 1.58679 -1.33125
-1.63596 3.18265 -1.52557
-2.15755 1.50479 -1.3514
-1.09451 3.83282 -1.75152
-1.19461 3.82245 -1.76708
-0.249786 2.75262 -2.14358
-1.81322 2.74515 -1.34832
-1.40172 2.18527 -1.29726
-1.35452 3.20291 -1.64816
-2.00362 2.50339 -1.33838
-1.7536 2.23636 -1.30234
-0.95842 2.13525 -1.79242
-2.76901 0.541779 -2.00022
-1.26541 2.20209 -1.34623
-2.00731 1.6904 -1.29279
-0.320251 2.65231 -1.95281
-0.236526 2.91043 -1.84523
-3.2019 0.235992 -2.04582
-0.747864 2.59909 -1.61138
-3.45454 1.27573 -1.81259
-1.7574 1.82889 -1.34576
-1.20871 1.91681 -1.89652
-4.15567 0.533661 -2.10013
-0.901459 2.07916 -2.53763
-3.5134 1.1871 -1.81972
-3.25526 0.741364 -1.79733
-1.97403 1.69412 -1.30585
-2.70245 2.04929 -1.38749
-1.44014 1.67068 -2.24751
-0.988846 2.08179 -2.0575
-1.44095 1.71335 -1.83583
-4.21336 0.492981 -2.21233
-2.77979 0.525818 -1.95922
-1.24438 1.9415 -1.70988
-0.909607 2.13046 -1.89345
-0.745377 2.2352 -2.43952
-1.3011 3.63425 -1.73839
-4.19586 0.750519 -2.0189
-3.77838 1.74347 -1.97766
-2.60605 2.04337 -1.36165
-1.34453 3.2048 -1.61095
-3.75954 0.649323 -1.9146
-0.228806 2.93286 -1.85069
-3.94461 0.948883 -1.94597
-2.46761 2.77478 -1.4288
-0.496857 3.01053 -1.63065
-3.70631 0.420441 -1.92089
-3.01082 2.19638 -1.4565
-3.66847 1.57236 -1.87968
-1.2003 3.543 -1.71455
-1.52061 1.60428 -1.89115
-0.884033 2.21527 -2.47574
-2.37764 1.02463 -2.48812
-2.04112 1.15555 -2.23843
-0.216324 2.92792 -1.89943
-1.86127 1.78412 -1.29592
-2.64998 0.638031 -2.14209
-0.606827 2.33371 -2.3945
-1.31694 1.75543 -1.99047
-0.619659 2.38333 -1.90055
-1.35902 2.30515 -1.32774
-0.331497 2.70386 -2.09507
-1.93318 3.02295 -2.02543
-3.40842 0.0432434 -2.1439
-2.75235 2.19818 -1.39851
-2.44908 2.24142 -1.34975
-0.214844 3.05652 -2.03498
-3.20953 0.529388 -1.81012
-0.449951 2.78989 -1.63377
-1.45023 2.07822 -1.39259
-1.32541 3.15607 -1.60832
-3.01396 0.415955 -1.91616
-2.5056 0.788849 -2.09675
-2.26802 0.991119 -2.25365
-3.92496 1.29672 -1.93158
-2.23917 1.07428 -1.8733
-1.49199 1.62503 -2.20008
-0.556793 3.35416 -1.7472
-3.35086 0.949554 -1.80534
-0.898087 3.19 -1.65822
-2.82921 1.93738 -2.21793
-0.757065 2.88461 -1.61745
-1.00362 2.24969 -1.59687
-1.65608 1.94086 -1.34431
-2.7171 1.88583 -2.26018
-0.652405 2.94467 -1.62808
-0.990662 2.78619 -1.62929
-2.19606 1.90137 -1.30327
-2.22621 1.21927 -1.78621
-0.757889 2.35107 -2.06312
-3.38551 0.419189 -2.59804
-2.24432 1.89191 -2.08213
-3.83199 0.163208 -2.42146
-1.53552 2.56293 -1.81098
-2.2704 0.964081 -2.00449
-0.799225 3.00037 -1.64325
-1.73958 1.90054 -1.32875
-2.5041 1.54218 -1.38417
-2.44888 1.44315 -1.3863
-1.27138 1.9809 -1.69966
-4.1088 0.444366 -2.48967
-2.60106 0.740875 -1.94063
-0.897202 3.71161 -1.74348
-1.85313 1.79364 -1.32453
-2.15408 1.64383 -1.31128
-1.7641 2.32736 -1.29593
-3.84006 1.24796 -1.90371
-4.08037 1.36548 -1.97377
-2.25037 2.28754 -1.33023
-2.91707 2.54379 -2.11068
-0.495209 2.68588 -1.69082
-1.55684 3.23209 -1.58786
-1.75665 1.42987 -1.95683
-1.95476 2.68875 -1.34154
-3.90213 0.293549 -2.08258
-2.90276 0.740692 -1.75011
-2.55919 0.907013 -1.73225
-2.35921 2.63748 -1.38161
-1.51817 2.09137 -1.30413
-1.36385 1.88107 -1.71661
-1.89165 2.41507 -1.3078
-3.29633 2.16873 -1.62262
-0.551376 2.50351 -1.85092
-1.4355 1.77829 -2.41733
-1.90788 3.0043 -1.4011
-0.337524 2.68246 -2.23605
-3.49101 1.30966 -1.81489
-0.974197 2.14407 -1.71001
-2.79712 0.551056 -2.19741
-2.24699 1.48434 -1.3463
-2.32567 0.917603 -2.014
-1.82304 1.35477 -2.24809
-2.10373 1.90015 -1.30211
-3.82777 0.221466 -2.43409
-2.76051 2.48895 -1.42565
-2.01239 2.96582 -2.26517
-2.79836 0.537048 -2.65118
-0.367706 3.23227 -2.03207
-2.09628 1.64798 -1.30793
-2.39917 0.858459 -1.71106
-2.25798 1.14807 -1.65405
-0.68306 2.35654 -2.01893
-1.59367 1.68155 -1.73643
-4.01384 0.687134 -1.96714
-2.69298 2.26443 -1.38436
-2.05974 1.98959 -1.29834
-2.60384 1.65167 -1.38939
-1.81581 1.79428 -1.542
-4.19409 0.657013 -2.04098
-2.38878 0.872894 -2.25566
-0.50174 3.10229 -1.65194
-2.16373 2.42377 -2.20274
-2.16899 1.15292 -1.75728
-2.70818 1.68216 -1.40259
-0.667648 2.26093 -2.55109
-2.71683 2.07861 -1.3904
-1.70705 2.74161 -1.90061
-2.20987 1.42221 -1.44754
-2.52013 0.948486 -1.66297
-0.473923 2.49149 -2.04027
-4.43712 0.910004 -2.18193
-2.29625 2.16122 -1.32608
-2.99623 0.371155 -2.34598
-2.40327 0.93927 -2.39437
-3.27666 1.20316 -1.80642
-1.24649 2.03336 -1.64679
-0.281998 2.88928 -1.7369
-2.40323 1.10086 -1.55311
-1.54866 1.96365 -1.38281
-1.90768 1.71686 -1.29855
-0.824722 2.16824 -1.92291
-0.874252 2.22906 -1.71278
-2.06357 2.32309 -2.17064
-3.8642 0.537811 -1.94831
-1.04442 2.81577 -1.6192
-1.18623 1.88391 -2.18973
-2.70164 2.49115 -1.41162
-1.40959 2.08023 -1.43739
-1.49237 2.30951 -1.29018
-2.17458 1.14395 -2.39164
-1.91393 1.25977 -2.19377
-2.83214 1.85464 -1.42268
-3.35909 0.599457 -1.84508
-1.30745 1.93076 -2.49012
-2.89041 0.699615 -1.78194
-3.25804 0.230133 -1.97818
-2.66501 1.8371 -1.37947
-1.89565 2.2941 -2.13886
-1.61195 2.10513 -1.29713
-3.90817 0.295807 -2.04859
-1.72014 2.68106 -2.00909
-2.76268 1.98752 -1.39793
-1.62616 3.18301 -1.66592
-3.25719 2.30997 -2.13675
-3.58983 0.123688 -2.04712
-1.26033 2.65607 -1.61593
-2.00072 2.39407 -2.14919
-3.30748 0.9021 -1.79557
-2.55739 1.63736 -1.37848
-4.11464 1.20218 -1.97277
-1.47731 2.02029 -1.42876
-3.69824 0.24826 -1.93862
-0.501892 2.46176 -2.19558
-4.13998 1.51636 -1.998
-2.39903 2.83423 -2.2379
-3.91165 1.38321 -1.93476
-1.63321 1.49518 -2.13693
-2.3918 1.90634 -1.3251
-3.60867 0.90506 -1.88326
-2.84044 0.55304 -1.92316
-2.1431 1.9921 -1.8004
-1.59627 2.40482 -1.2946
-2.24062 1.08206 -2.38851
-0.622604 2.50247 -1.74504
-1.85126 1.9982 -1.2873
-3.52222 0.12558 -2.06104
-2.53304 1.64291 -2.16348
-0.671417 2.27557 -2.60859
-3.75945 0.435211 -1.91742
-0.285202 2.79074 -2.27635
-0.891068 2.5994 -1.61064
-2.60345 0.77948 -1.95222
-0.616119 3.09451 -1.6464
-2.17381 1.10434 -2.33855
-2.6048 2.61597 -2.54448
-2.01224 1.61966 -1.38187
-0.80629 2.94946 -1.63272
-1.30104 2.55994 -1.53666
-3.30278 0.844635 -1.79642
-1.40404 3.26132 -1.64575
-1.20738 3.13657 -1.65487
-0.862839 2.15219 -2.2436
-1.34924 2.93979 -1.64089
-3.25096 0.553436 -1.80907
-2.26646 2.17239 -1.32147
-0.983643 3.89771 -1.95759
-2.79367 0.503326 -2.58685
-1.35033 1.99551 -1.57846
-2.39384 0.870361 -1.7456
-2.33783 2.76749 -2.22893
-4.15865 0.836334 -2.00674
-3.40543 0.0880737 -2.09463
-2.76625 1.89981 -2.21449
-3.55511 0.0852661 -1.94536
-2.96536 0.486725 -2.29834
-2.40404 1.13712 -1.5888
-0.635056 2.69101 -1.61634
-2.48221 2.06274 -2.22329
-2.1286 1.17416 -1.87032
-2.69357 0.831818 -1.77761
-2.89568 0.471039 -2.3006
-1.03789 2.19177 -1.62729
-0.987747 2.24179 -1.62989
-0.861191 2.68704 -1.59881
-0.587601 2.37128 -2.29305
-2.18195 1.40421 -1.48261
-0.264999 2.71863 -1.95342
-3.51695 0.788361 -1.88202
-3.76074 0.944244 -1.90252
-1.81537 1.5022 -1.69463
-0.632019 2.31177 -2.39495
-2.22356 1.00369 -1.99655
-4.04659 0.438477 -2.56012
-0.751205 2.89981 -1.64065
-1.00427 2.76129 -1.64567
-2.0769 3.02164 -2.23396
-0.507126 2.76019 -1.60997
-0.933136 2.12186 -1.87296
-3.35805 0.840912 -1.80711
-0.605087 2.33084 -2.49264
-0.998886 3.34943 -1.67592
-3.29527 0.507233 -1.83811
-3.70207 0.548248 -1.91075
-1.46365 2.39044 -1.30117
-2.64412 0.852417 -1.71102
-3.31438 0.10202 -2.29728
-1.9855 1.75476 -1.76913
-0.306656 3.08533 -1.94392
-1.22295 3.84027 -1.77272
-2.50148 2.39923 -1.991
-2.24861 1.35382 -1.45131
-0.544266 2.4982 -1.89966
-1.34816 1.80688 -2.38332
-0.619278 2.30667 -2.49524
-4.18117 0.428314 -2.21387
-0.402176 2.74045 -2.40974
-1.0175 3.24368 -1.68002
-1.19905 2.04086 -1.73036
-1.40446 3.05231 -1.53773
-1.58672 3.08035 -1.4925
-1.6777 1.94189 -1.31165
-2.65163 0.901703 -1.71506
-1.85243 2.74799 -1.34742
-1.53781 2.88773 -1.68622
-0.897614 2.24359 -1.74362
-0.800674 2.29608 -2.25132
-1.34067 1.82574 -1.83207
-1.25069 2.75644 -1.63169
-0.344681 2.70059 -1.89099
-3.84004 0.596619 -1.93521
-2.54306 1.6994 -1.35437
-2.14058 1.18112 -2.41448
-1.94472 2.21616 -2.15869
-3.55865 0.151367 -1.912
-3.1143 0.944122 -1.77293
-2.16859 1.44565 -1.39014
-1.32277 1.8764 -1.83837
-1.64513 1.96155 -1.39231
-4.40163 1.29544 -2.06671
-3.75572 0.200806 -1.97895
-1.7294 3.31433 -1.56251
-2.52074 2.28113 -1.36109
-2.457 2.34445 -1.36343
-1.23415 1.86963 -1.97742
-0.573334 2.38345 -2.34077
-1.25652 1.92535 -1.79593
-3.80681 1.79898 -1.93108
-3.18613 0.235382 -2.13102
-3.61049 0.390198 -1.90213
-3.48648 0.0357361 -2.06911
-2.80614 2.29086 -1.41287
-0.971268 2.05878 -1.96952
-1.6785 1.69418 -1.77268
-1.45065 2.61523 -1.37822
-2.48985 0.891815 -2.45113
-1.02715 2.72531 -1.59671
-1.32188 2.03116 -1.50209
-0.643341 3.14795 -1.65549
-2.75482 0.665527 -2.37349
-1.86772 1.65561 -1.41518
-0.566025 2.39127 -2.0035
-2.24722 1.30759 -1.5437
-0.300613 2.9408 -1.64436
-2.11598 1.14777 -1.84328
-2.16315 1.88544 -1.30011
-1.49933 3.3732 -1.69887
-0.724655 2.26181 -2.06141
-2.65169 1.60098 -1.40496
-0.854111 2.15082 -2.29808
-1.33182 1.8367 -2.40725
-0.787125 2.74725 -1.64095
-1.15347 1.99139 -1.84248
-2.84305 0.492493 -2.49082
-1.50082 3.4881 -1.70848
-1.00099 2.07657 -1.87785
-3.06348 0.3461 -2.14339
-3.02101 0.335144 -2.56186
-3.12025 0.3927 -2.13089
-1.57977 1.82111 -2.58922
-1.20485 3.58847 -1.73155
-2.93507 0.561584 -1.78663
-1.27951 2.28583 -1.77049
-3.95708 1.24637 -1.92432
-2.9362 2.55212 -2.09341
-0.279465 2.9754 -1.71218
-3.46843 0.943329 -1.82555
-3.42026 1.08945 -1.82063
-1.35243 1.79364 -1.84606
-1.84138 3.1666 -1.50267
-4.48044 1.17825 -2.2327
-3.21017 2.10104 -1.60558
-0.998322 2.14682 -1.74644
-0.494675 2.91208 -1.6252
-2.37245 1.7988 -1.33025
-2.85361 2.19553 -1.42479
-0.699203 2.27359 -2.4784
