-36.9675 -27.536 -3.02209
-36.8517 -27.215 -2.43235
-39.0403 -29.0966 -2.53425
-40.2957 -28.4515 -3.29813
-38.5498 -28.869 -2.99305
-36.9078 -26.469 -3.00777
-38.6687 -27.934 -2.10721
-37.7795 -26.8862 -2.03115
-38.6906 -28.9661 -2.78548
-38.6176 -28.6946 -2.30334
-37.4936 -27.9043 -2.80241
-37.7076 -28.0713 -2.69084
-36.9487 -27.4569 -2.73678
-38.4324 -28.7465 -2.79824
-38.2429 -28.5038 -2.6442
-38.4483 -28.6492 -2.30945
-37.53 -26.3222 -2.20667
-38.9473 -29.3028 -2.5867
-37.0491 -27.4072 -2.98887
-37.4033 -27.767 -2.45301
-37.0661 -27.5412 -2.54928
-39.0007 -29.2078 -2.7999
-36.8465 -27.3458 -2.5466
-38.4422 -28.6876 -2.44286
-37.0453 -27.5292 -2.7637
-39.8028 -29.0718 -2.66762
-38.9528 -28.9279 -2.44099
-37.9065 -28.1898 -2.44724
-38.366 -28.5374 -2.31698
-37.3163 -27.4358 -2.13322
-38.6158 -28.9054 -2.64952
-37.2392 -27.0511 -2.06052
-37.3627 -27.7719 -2.82937
-37.2238 -26.1748 -2.74007
-38.9961 -29.189 -3.17485
-38.7137 -29.0834 -3.19718
-38.7385 -28.9068 -2.40887
-38.6742 -28.8686 -2.61167
-37.323 -27.6226 -2.45479
-37.7777 -27.8342 -2.08389
-38.117 -28.4692 -2.74703
-39.3991 -29.4012 -3.03314
-36.5826 -26.9853 -2.89246
-36.5845 -27.0663 -2.93972
-37.7507 -27.8684 -2.24128
-38.2443 -28.6178 -3.04203
-38.1954 -27.8347 -1.9901
-38.8671 -29.1849 -3.09133
-39.4822 -27.7065 -2.44646
-38.3997 -28.6978 -2.3131
-38.424 -28.5053 -2.32482
-37.1934 -26.2743 -2.47717
-37.4643 -26.2996 -2.2577
-39.0586 -29.0976 -2.47022
-37.9783 -28.4252 -2.98051
-39.2072 -29.3852 -2.89466
-37.0181 -26.3645 -2.79882
-39.0595 -27.4069 -2.19496
-37.1267 -27.2783 -2.03246
-37.7695 -26.4955 -2.09315
-40.1123 -28.9069 -3.13971
-37.4441 -27.4275 -2.03508
-37.5269 -27.9153 -2.51977
-37.2244 -27.3443 -2.11415
-38.2928 -28.2415 -2.08106
-38.9879 -29.2373 -2.74008
-37.5237 -27.8865 -3.1738
-36.7696 -27.4034 -3.20432
-36.7788 -27.3378 -2.6789
-40.093 -28.6011 -2.72201
-38.4788 -28.7988 -2.9198
-39.604 -28.1127 -2.54644
-37.6095 -28.0345 -2.74294
-38.8761 -28.9691 -2.45435
-38.5073 -28.5049 -2.19897
-39.1731 -29.1324 -2.46151
-40.1722 -28.8416 -3.35062
-37.736 -28.0467 -2.47632
-38.374 -28.7075 -2.7562
-39.3307 -29.2209 -2.67055
-38.6041 -28.9057 -2.69175
-38.8851 -28.884 -2.43355
-37.3411 -27.8369 -2.98735
-38.7737 -29.1377 -3.20464
-38.4705 -28.5441 -2.12864
-37.3091 -27.3165 -2.04796
-39.283 -29.3844 -2.77559
-37.2021 -27.4039 -2.24143
-38.4524 -28.4919 -2.24249
-37.2067 -27.59 -3.19413
-37.8111 -28.1902 -2.65192
-36.7453 -27.3228 -2.84522
-37.6962 -28.062 -2.73565
-37.0042 -27.1893 -2.21962
-37.6011 -26.8534 -2.00102
-37.8714 -28.2498 -2.85314
-37.9232 -28.3374 -2.86713
-38.6046 -28.9473 -2.791
-38.2198 -28.5857 -2.8303
-38.9957 -29.0197 -3.3505
-39.2167 -27.5586 -2.31448
-38.3267 -28.2892 -2.12959
-39.7705 -29.317 -3.10178
-38.5034 -28.4708 -2.41823
-36.7702 -26.6319 -3.03412
-37.0425 -26.3752 -2.717
-38.4029 -28.6775 -2.33765
-37.6767 -28.1235 -3.01814
-38.053 -28.4739 -2.98909
-38.8257 -29.1275 -3.042
-39.2466 -27.5886 -2.29099
-38.409 -28.7413 -2.84383
-37.9972 -28.2616 -2.5312
-39.1101 -29.2614 -2.59781
-37.6735 -27.6694 -1.99956
-37.0034 -27.465 -2.48876
-37.557 -27.963 -2.69543
-36.8203 -27.3132 -2.45429
-37.079 -26.3662 -2.46983
-36.7997 -27.3501 -2.78756
-36.8569 -27.3968 -2.64851
-37.8394 -28.0371 -2.3105
-37.5925 -27.1936 -1.96609
-37.5358 -27.9175 -2.64777
-37.901 -28.3391 -2.88671
-39.2753 -28.4716 -2.45792
-39.2897 -27.5439 -2.31384
-36.8071 -27.4442 -3.30165
-38.4449 -28.4512 -2.15351
-37.232 -27.7175 -3.02962
-37.6135 -27.7743 -2.39531
-36.5957 -27.0327 -2.72395
-38.2554 -28.6148 -2.9046
-38.001 -28.3658 -2.84494
-38.2561 -28.6363 -2.93784
-38.2661 -28.6081 -2.75191
-37.2063 -27.2733 -2.10252
-38.9062 -29.264 -3.29057
-39.4535 -28.3063 -2.49881
-38.9682 -29.2063 -3.16031
-40.0533 -28.9948 -3.11972
-36.8555 -27.3461 -2.94314
-39.5125 -29.2496 -2.61621
-37.8923 -28.05 -2.38958
-37.2397 -27.5267 -2.38784
-38.4645 -28.473 -2.27356
-37.7848 -27.9488 -2.1515
-37.4956 -27.7309 -2.37153
-39.2305 -29.2417 -2.71461
-38.5629 -28.8664 -2.74329
-39.621 -29.4078 -2.90128
-38.4523 -28.7068 -2.54354
-38.0851 -27.6466 -2.33809
-37.7127 -26.5056 -2.08088
-37.0347 -27.5236 -2.68053
-38.6891 -29.0174 -2.92118
-36.8531 -27.3529 -2.7169
-38.708 -29.0894 -3.24555
-37.2513 -27.4639 -3.1556
-37.4869 -26.3574 -2.15916
-39.0248 -29.2943 -3.26238
-39.2907 -29.1585 -2.62112
-39.4896 -29.3565 -3.30651
-37.6142 -28.0517 -2.85313
-38.429 -28.6656 -2.31888
-38.4934 -28.7875 -2.5185
-39.6074 -29.4052 -3.19505
-39.0541 -29.2221 -2.6442
-39.0903 -28.9817 -2.43843
-36.7451 -27.2966 -2.68938
-39.4321 -29.4225 -2.97146
-39.3675 -29.427 -3.14816
-39.1403 -29.3059 -2.60626
-39.2167 -29.2124 -2.66736
-37.137 -27.5778 -3.1364
-38.1846 -28.5714 -3.05491
-38.0122 -28.3208 -2.59579
-38.9463 -29.2442 -2.99662
-38.8301 -29.1338 -2.9847
-38.2523 -27.7449 -2.00592
-37.5099 -28.0064 -2.99609
-38.8832 -29.0367 -2.50137
-38.3052 -28.5964 -2.59263
-37.3678 -27.162 -2.01286
-38.0974 -27.7037 -2.41927
-36.7866 -26.8189 -2.52281
-36.5887 -27.0985 -2.89596
-38.3664 -28.7045 -2.35059
-38.0596 -28.4441 -2.89216
-40.0683 -28.6577 -2.70234
-38.4907 -28.7993 -3.05207
-38.441 -28.7511 -2.63928
-37.3241 -27.763 -2.5832
-37.1697 -27.2976 -2.09905
-37.2124 -27.708 -2.99128
-37.4565 -27.9077 -2.69531
-39.3449 -27.6145 -2.35246
-37.2131 -27.2887 -2.05399
-38.9726 -29.1344 -3.24815
-38.4924 -28.8016 -2.79203
-39.8036 -29.2585 -3.1054
-37.7966 -27.9058 -2.09666
-38.1164 -27.6476 -1.99352
-39.1199 -29.141 -2.5146
-37.8009 -28.1038 -2.43393
-39.1632 -29.0083 -2.4597
-37.0075 -27.007 -2.25358
-37.2032 -27.0475 -2.06078
-37.4093 -27.8497 -2.75245
-36.7819 -26.6395 -2.96579
-38.771 -28.7253 -3.32138
-36.9847 -26.4015 -2.79297
-37.1808 -27.2596 -2.1715
-38.0109 -27.8387 -1.95786
-37.4969 -27.7258 -2.38492
-38.7779 -28.8762 -3.10213
-38.5528 -28.564 -2.3422
-39.3014 -29.4343 -2.96939
-38.2916 -28.5955 -2.74406
-37.7216 -28.1956 -3.03853
-39.415 -29.2562 -2.68723
-37.9189 -28.3616 -2.99359
-40.0449 -29.0074 -2.94396
-37.9715 -28.3647 -2.74414
-39.1817 -29.1795 -2.57468
-37.127 -27.1055 -2.14587
-39.4014 -27.6451 -2.39246
-39.3024 -29.4116 -3.14124
-38.4056 -28.6789 -2.94632
-38.6937 -29.0405 -3.04062
-39.0905 -29.2648 -2.92221
-38.6207 -28.9818 -3.08748
-39.5205 -28.1816 -2.52434
-37.02 -26.5945 -2.31266
-38.8113 -29.0994 -2.79904
-38.9795 -27.2469 -2.14579
-37.9595 -28.2119 -2.45065
-38.9897 -28.7412 -2.42952
-38.4445 -28.6541 -2.56176
-37.4805 -27.8224 -2.41073
-37.3924 -27.1451 -1.99552
-36.7089 -27.0595 -2.49658
-38.1718 -28.5146 -2.66798
-37.2392 -27.6935 -3.09851
-39.0125 -29.2609 -3.30411
-37.8075 -27.7567 -2.00176
-39.2783 -29.3811 -2.78785
-37.8136 -27.9964 -2.34558
-36.8425 -27.4167 -3.07909
-37.6746 -26.5663 -2.10184
-37.4595 -27.5187 -2.10143
-37.1608 -26.239 -2.63456
-38.7126 -29.0923 -3.29132
-38.8717 -29.1642 -2.68968
-38.223 -28.4963 -2.45812
-39.4424 -28.5855 -2.51901
-37.0389 -26.4046 -2.45513
-37.1502 -27.5854 -3.11464
-39.7497 -29.1559 -2.68909
-39.5618 -27.9068 -2.48502
-39.8981 -28.9149 -2.68761
-39.2457 -29.1401 -2.50082
-39.4552 -29.2126 -2.79592
-36.8759 -27.2748 -2.44049
-39.1237 -29.3479 -3.10331
-39.3807 -29.3841 -3.07229
-38.8364 -28.8426 -2.39576
-37.937 -27.8327 -2.34676
-37.4747 -27.9438 -2.85029
-37.9535 -28.1696 -2.39646
-39.0389 -28.6333 -2.39664
-37.1385 -27.3477 -2.28065
-38.073 -28.3268 -2.45892
-37.443 -27.6594 -2.38398
-37.8245 -27.8734 -2.10935
-37.3487 -27.7845 -2.50754
-37.5555 -27.8543 -2.39793
-36.8346 -27.1597 -2.3754
-37.269 -27.7524 -2.80767
-38.1526 -28.436 -2.48918
-37.7289 -28.1321 -2.76247
-37.4178 -27.5077 -2.19749
-39.172 -29.2022 -3.21436
-37.1105 -27.5359 -2.44985
-39.3783 -27.8149 -2.37339
-39.3744 -28.6961 -2.49648
-38.7907 -29.0367 -2.75512
-37.4191 -27.8443 -2.47531
-38.5415 -28.8225 -2.85494
-39.076 -29.2984 -2.70857
-39.4795 -29.3663 -2.81047
-39.4642 -29.439 -3.01755
-37.8053 -27.7398 -2.03536
-39.6895 -28.2555 -2.52756
-38.2589 -28.6334 -2.78044
-36.7406 -26.9243 -2.47541
-39.1031 -28.8096 -2.43875
-37.2048 -27.2876 -2.09382
-37.6443 -26.9313 -2.00933
-37.3614 -27.811 -3.10174
-39.6774 -29.3133 -3.27212
-39.6795 -28.2452 -2.55178
-38.842 -29.1447 -3.03957
-36.9716 -27.1645 -2.30255
-38.9419 -28.9399 -2.41032
-37.2212 -27.676 -2.59104
-36.8716 -26.7628 -2.34094
-37.6965 -28.1817 -2.92881
-38.9769 -29.1053 -3.26768
-37.8655 -26.5548 -2.08138
-36.8056 -27.1629 -2.43867
-36.6638 -27.1882 -2.65034
-38.0264 -27.7952 -2.41684
-38.093 -28.0968 -2.13285
-37.75 -27.8511 -2.1451
-39.3908 -29.4287 -3.17934
-39.4006 -29.3085 -2.69075
-37.5371 -27.9206 -2.6927
-38.9627 -27.4988 -2.13273
-38.5854 -28.593 -2.39711
-38.5952 -28.7937 -2.536
-40.0268 -29.0114 -3.13717
-37.8267 -28.1564 -2.45533
-38.2153 -28.4706 -2.50278
-37.3037 -27.757 -2.74956
-38.9582 -29.2485 -2.90247
-38.8489 -29.2043 -3.35328
-39.964 -29.109 -3.11157
-38.9242 -29.2213 -3.14203
-38.4619 -28.7769 -2.89748
-37.8991 -27.8859 -2.14083
-36.7364 -26.8401 -2.52442
-37.6527 -27.9018 -2.34396
-39.8245 -29.0789 -2.79625
-38.4548 -28.469 -2.19318
-37.8745 -28.2994 -2.93517
-38.4483 -27.4643 -2.0307
-36.9587 -27.4884 -2.83791
-38.0216 -28.3231 -3.20324
-37.6459 -27.985 -2.44055
-36.8123 -27.2732 -2.54858
-39.2559 -29.3998 -3.05492
-39.2946 -28.3857 -2.4143
-38.1175 -28.4964 -2.90476
-37.746 -27.8254 -2.13335
-39.017 -29.1725 -2.58934
-37.9317 -26.6507 -2.06952
-39.3544 -28.4033 -2.46105
-37.147 -27.4112 -2.3403
-37.2073 -27.6659 -2.65098
-37.0373 -27.5435 -2.82674
-39.6277 -29.3757 -3.26516
-38.3149 -28.5644 -2.53989
-36.7125 -27.1655 -2.94228
-38.1035 -28.4636 -2.89478
-38.5222 -28.8083 -2.66166
-37.488 -27.9417 -2.93369
-38.5652 -28.6486 -2.29325
-39.2212 -27.4573 -2.25284
-39.1389 -29.1073 -2.53713
-36.875 -27.2216 -2.35836
-38.6512 -28.956 -2.68641
-38.1313 -27.6348 -1.98532
-38.4792 -28.7902 -2.81411
-38.493 -28.5089 -2.39304
-39.4923 -27.6056 -2.45092
-37.3953 -27.6392 -2.33488
-39.2131 -28.6607 -2.43157
-38.7027 -28.7656 -3.1048
-39.729 -28.0254 -2.57883
-39.3566 -29.4114 -3.03726
-37.7144 -27.8985 -2.29473
-38.4575 -28.7896 -2.9513
-36.8513 -26.8183 -2.30943
-39.0974 -27.3845 -2.18537
-37.8942 -28.1797 -2.48513
-39.2981 -29.2009 -2.5457
-38.6471 -28.8809 -3.04192
-36.8705 -26.9917 -2.29806
-38.2891 -28.6235 -2.88669
-39.461 -29.3506 -2.70178
-38.3679 -28.666 -2.40145
-37.2092 -27.717 -2.49705
-39.5527 -29.3521 -2.88504
-37.2509 -27.7301 -2.93364
-39.0414 -29.2962 -2.77793
-36.5704 -27.0201 -2.78677
-38.4512 -28.7727 -3.11311
-37.1359 -27.4934 -2.42312
-37.0197 -26.4152 -2.46383
-36.8107 -27.4429 -3.14027
-38.521 -28.7654 -2.51381
-38.3609 -28.6805 -3.12685
-38.0556 -28.3633 -2.60873
-37.6761 -28.0738 -2.74762
-39.7246 -28.0569 -2.51873
-36.7204 -26.8712 -2.41075
-36.9709 -27.3708 -2.48811
-37.9333 -28.3539 -3.02616
-37.8549 -28.0699 -2.36782
-37.3631 -27.6289 -2.38695
-39.1385 -29.3761 -3.05842
-38.5504 -28.6057 -2.39762
-36.7708 -27.0416 -3.00816
-38.0584 -28.4859 -2.98511
-39.0233 -29.3011 -2.95355
-39.3504 -29.3849 -2.84706
-37.1572 -27.0473 -2.13296
-38.5575 -28.4576 -2.19563
-37.0469 -27.2416 -2.2343
-36.8707 -27.4382 -2.85482
-38.3793 -28.6814 -2.57901
-38.3563 -28.6557 -2.547
-38.0849 -27.7483 -2.50195
-37.2897 -27.3912 -2.09716
-38.9611 -29.0013 -2.44939
-36.8484 -27.2988 -2.43771
-39.0136 -28.9616 -2.41639
-37.7922 -28.0688 -2.44141
-38.3641 -28.708 -3.08978
-37.316 -27.3781 -2.15446
-36.8113 -27.3012 -2.5041
-37.7535 -27.7149 -2.13242
-38.4739 -28.0522 -2.04134
-38.0728 -28.4662 -2.58755
-39.2012 -29.2549 -2.60044
-38.3837 -28.5958 -2.31419
-38.0925 -28.4671 -2.94028
-38.5721 -28.8105 -2.54663
-36.9005 -27.5091 -3.29753
-36.6655 -27.1839 -2.8935
-38.8434 -29.0301 -2.61134
-37.692 -27.6557 -2.00806
-38.3382 -28.2784 -2.10333
-36.6669 -27.2344 -2.67177
-37.0379 -27.1661 -2.23148
-37.0978 -26.2611 -3.03669
-38.7699 -29.1216 -3.19475
-37.87 -28.2098 -2.4624
-39.3096 -28.4995 -2.45307
-38.3911 -28.2523 -2.08641
-36.8939 -27.4651 -3.20715
-38.5973 -28.6911 -2.3484
-39.7674 -29.2573 -2.86116
-37.5681 -27.5685 -2.00703
-36.8056 -27.1646 -2.39852
-37.7432 -26.9555 -2.00832
-39.6969 -28.2532 -2.51989
-36.9996 -26.4455 -2.54272
-39.5589 -27.9441 -2.49264
-37.1312 -27.6417 -2.71557
-36.9238 -27.5409 -3.09957
-38.4128 -28.751 -3.09361
-37.7659 -27.8928 -2.15469
-36.7028 -27.1558 -2.88308
-37.9493 -28.3434 -2.63835
-36.9042 -27.4663 -3.0483
-38.995 -28.6538 -2.43261
-38.8439 -29.144 -2.8942
-39.2621 -28.395 -2.44798
-39.5802 -28.1292 -2.54173
-39.1941 -28.9612 -2.46643
-37.4317 -27.4933 -2.20738
-37.0599 -27.6186 -3.13903
-37.0595 -27.6146 -3.0918
-38.8193 -27.9924 -2.15964
-38.4929 -28.8196 -2.99753
-37.4596 -27.8635 -2.55104
-37.3154 -27.7518 -2.69638
-37.7557 -27.9539 -2.33823
-39.5516 -28.4349 -2.52753
-38.6641 -28.8701 -2.70047
-36.7355 -26.9872 -2.41514
-37.8497 -27.8135 -1.99518
-37.3874 -27.7592 -2.49433
-37.8169 -27.7133 -2.05283
-39.3396 -28.7593 -2.4783
-37.0206 -27.5594 -2.59528
-37.3205 -26.2277 -2.37803
-37.3577 -27.4841 -2.15221
-38.8222 -29.0931 -2.76057
-39.1541 -29.1157 -2.49448
-38.5948 -28.8525 -2.59341
-39.4603 -29.4406 -2.91886
-40.021 -29.0521 -2.91166
-39.0239 -29.2247 -2.56628
-36.7263 -27.3781 -3.2311
-36.8755 -27.4338 -2.88609
-39.3656 -29.4412 -3.12591
-40.0934 -28.9547 -3.11066
-37.2788 -27.7894 -2.61559
-38.761 -29.0501 -2.90264
-37.1535 -27.3212 -2.25877
-39.3609 -29.3522 -3.27288
-36.997 -27.5523 -2.94639
-36.7016 -27.3107 -3.09818
-37.358 -27.8109 -2.80033
-38.956 -29.058 -2.54759
-38.1536 -28.3579 -2.44041
-37.6873 -28.1349 -2.81349
-36.988 -27.4436 -2.94501
-37.4534 -27.8953 -2.79953
-37.3154 -27.6017 -2.34954
-39.4552 -27.6656 -2.45203
-37.0945 -27.5973 -2.85332
-39.4099 -29.4178 -3.00388
-37.7649 -27.9746 -2.38309
-37.7899 -28.209 -2.93888
-37.2392 -27.4565 -2.30039
-38.6509 -28.665 -2.30082
-38.3753 -28.613 -2.30868
-37.201 -27.5089 -2.34705
-38.9939 -29.121 -3.2436
-36.6097 -27.1183 -2.99137
-38.9538 -29.1932 -2.79349
-39.2589 -29.2737 -2.60908
-38.4098 -27.5324 -2.01201
-37.3077 -27.4193 -2.18223
-39.8697 -29.2167 -3.22614
-39.3223 -27.8463 -2.36148
-37.378 -27.2619 -2.19031
-37.6557 -28.0078 -2.54627
-37.3145 -27.7945 -3.0744
-40.2017 -28.7077 -2.84745
-36.9589 -27.3236 -2.39907
-38.003 -27.9064 -2.00498
-38.244 -28.5392 -2.53916
-39.495 -29.3853 -2.79036
-37.2945 -27.2896 -1.99326
-38.8575 -29.1888 -3.14237
-37.0143 -27.4969 -3.13313
-37.844 -28.017 -2.29483
-39.5659 -27.7057 -2.49353
-37.0632 -27.28 -2.3016
-38.9048 -29.2392 -3.14621
-37.9729 -27.89 -2.04927
-38.9434 -29.1597 -2.98627
-38.5227 -28.2682 -2.31826
-38.1566 -28.5058 -2.79804
-36.9081 -27.2418 -2.44347
-37.8927 -28.2208 -2.69563
-37.6187 -27.7284 -2.14925
-36.7651 -27.396 -3.23739
-36.7723 -27.3377 -2.76959
-38.8525 -29.1435 -2.95002
-37.4651 -27.635 -2.22506
-39.5699 -29.3637 -2.85226
-36.7452 -26.759 -2.60424
-37.1183 -27.2199 -2.15749
-36.6717 -27.2952 -3.13316
-38.7458 -29.1137 -3.28704
-38.6502 -29.0197 -3.19223
-38.162 -27.6121 -2.43077
-39.4629 -28.1616 -2.46384
-39.3489 -29.3113 -2.73771
-38.6195 -28.6109 -2.25371
-36.8692 -27.4325 -2.73545
-39.843 -29.2348 -3.13011
-37.1155 -27.4301 -2.37371
-36.5804 -26.9937 -2.87253
-36.9895 -27.4505 -2.52213
-36.7757 -27.1848 -2.40316
-38.6922 -29.0238 -2.89168
-39.5651 -29.2663 -2.6888
-38.0093 -28.4207 -2.94674
-39.676 -29.2733 -2.78938
-37.7341 -27.9778 -2.42566
-38.0458 -28.0598 -2.10025
-39.1057 -29.2166 -2.58987
-37.2782 -26.927 -2.0361
-36.7018 -27.2763 -2.89373
-37.9068 -26.6801 -2.07295
-37.6926 -26.6399 -2.06181
-37.8048 -27.9101 -2.19425
-37.8233 -26.8373 -2.02234
-38.3561 -28.6901 -2.84113
-38.6441 -28.9392 -2.72482
-38.7422 -29.0552 -3.15899
-37.1048 -26.447 -2.37786
-39.3631 -29.1806 -2.59823
-38.4334 -27.4874 -2.02695
-38.1746 -28.4419 -2.45828
-37.7746 -28.1921 -2.78308
-38.5493 -27.3068 -2.05777
-37.5693 -28.0584 -3.00083
-39.1818 -29.3705 -3.14719
-37.0155 -27.3765 -2.3928
-39.5987 -28.1923 -2.53264
-36.95 -27.3658 -2.53372
-39.7478 -29.2697 -2.87442
-38.5447 -28.6388 -2.34781
-37.7398 -27.6938 -2.04253
-37.0612 -27.2434 -2.20069
-39.4793 -28.2199 -2.48767
-36.7966 -27.2699 -2.77044
-39.4991 -29.4384 -3.11109
-36.7035 -26.7581 -2.74747
-37.1816 -26.386 -2.3658
-36.5983 -27.0376 -3.00034
-39.8002 -29.1389 -2.77034
-38.8678 -29.0237 -2.55309
-37.6124 -27.8777 -2.44484
-38.1487 -28.3518 -2.48986
-37.3879 -27.8017 -2.59357
-38.7486 -29.0551 -3.17894
-38.7353 -28.8735 -2.52539
-38.9012 -29.1209 -2.75522
-37.9237 -27.8412 -2.35606
-38.7966 -29.105 -2.94177
-39.5162 -27.7189 -2.51579
-37.1617 -27.4106 -2.3187
-38.2604 -28.5684 -2.34089
-37.706 -28.1459 -2.62279
-37.4548 -27.8004 -2.48993
-36.8451 -27.4958 -3.21821
-37.0614 -27.5242 -2.59879
-39.0781 -29.3308 -3.02003
-38.5524 -28.4514 -2.22951
-38.2013 -28.1523 -2.04441
-39.8931 -29.1944 -2.93451
-37.1835 -27.2236 -2.06037
-38.1917 -28.5139 -2.73902
-39.6449 -29.323 -2.95542
-36.6726 -27.2892 -3.17118
-38.1549 -28.4653 -2.60065
-38.1404 -28.4959 -2.60021
-38.3536 -27.2653 -2.03062
-37.8018 -28.0093 -2.38367
-38.8194 -27.9623 -2.19235
-39.6072 -28.3735 -2.51615
-37.3586 -27.4611 -2.20198
-37.5899 -27.6115 -2.07142
-37.965 -27.6552 -2.33691
-37.0239 -27.5852 -3.02317
-37.597 -27.8441 -2.34643
-39.8107 -29.0496 -2.6775
-37.0588 -26.5757 -2.30505
-37.4422 -27.5117 -2.14658
-38.1124 -28.4586 -2.63786
-38.1063 -28.3081 -3.27991
-37.1571 -27.5623 -2.44393
-37.1562 -27.5254 -2.36027
-37.098 -27.4924 -2.38829
-38.6509 -28.8899 -2.99515
-36.9201 -27.2755 -2.36494
-38.7188 -28.8723 -2.89669
-36.9328 -27.2421 -3.30668
-37.0606 -27.4527 -2.39964
-39.0483 -29.236 -2.63918
-37.7727 -28.1695 -2.54772
-38.5452 -28.5137 -2.19294
-37.4491 -27.8288 -2.72845
-38.9059 -29.1581 -2.64528
-37.9722 -28.2431 -2.41467
-38.8018 -29.062 -2.7907
-38.8004 -27.9223 -2.14703
-37.5019 -27.9072 -2.65514
-39.6171 -29.406 -3.15268
-37.3911 -27.7168 -2.63957
-38.1007 -27.6998 -1.96617
-38.915 -28.9589 -2.41183
-39.1669 -27.5038 -2.27983
-38.0906 -28.3338 -2.42947
-39.7039 -29.3065 -2.89483
-38.3367 -28.6645 -2.94794
-37.5066 -27.5238 -2.01485
-37.7002 -28.0876 -2.69806
-37.6539 -26.8125 -2.00508
-36.7266 -27.2837 -2.79255
-38.9387 -29.2785 -3.28312
-38.3486 -28.6593 -2.29789
-39.5024 -27.6648 -2.4378
-38.5046 -28.6422 -2.43146
-38.5415 -28.5886 -2.28271
-38.7553 -28.7981 -2.44109
-36.7284 -26.9704 -2.4015
-38.2092 -28.5104 -2.64558
-37.3606 -27.3535 -2.1323
-37.6044 -27.9984 -2.79968
-37.8792 -28.3359 -3.04874
-37.6977 -28.0096 -2.48815
-38.1076 -28.5144 -3.03919
-38.6073 -28.6223 -2.27937
-37.4676 -26.8065 -2.05953
-36.7828 -27.3339 -2.88097
-40.1259 -28.5568 -2.71997
-37.115 -27.4941 -2.35663
-38.1931 -28.1619 -2.01119
-37.138 -27.6234 -2.6633
-38.1036 -28.4965 -2.68185
-36.9559 -27.1606 -2.32499
-38.3893 -28.6172 -2.49712
-36.9207 -27.5162 -3.15527
-36.9899 -27.5729 -3.13762
-39.2412 -29.2863 -2.64037
-39.0475 -29.2297 -2.67622
-39.0646 -29.0569 -2.53831
-39.6772 -27.8412 -2.56366
-37.0534 -27.2174 -2.24989
-36.6905 -27.2061 -2.84257
-38.3939 -28.6909 -2.33524
-37.0626 -27.5956 -2.89476
-37.2064 -27.6964 -2.85019
-37.8168 -28.2516 -2.89522
-38.3064 -28.6652 -2.94962
-37.0441 -26.5967 -2.29988
-37.703 -27.0126 -2.00362
-38.0749 -27.7392 -1.96417
-37.9084 -28.3535 -3.03479
-39.3587 -27.6098 -2.39714
-38.8097 -28.8667 -2.39824
-37.4795 -27.891 -2.47126
-38.3114 -28.6445 -2.79783
-37.7934 -28.1684 -2.75028
-37.0515 -27.5553 -2.79427
-37.0091 -27.5479 -2.8452
-38.5525 -28.8111 -2.58696
-39.0845 -29.2805 -2.89143
-37.0524 -27.0605 -2.13925
-38.9023 -29.2102 -3.03883
-38.1595 -27.5937 -1.98566
-36.6489 -27.1852 -2.6962
-38.5201 -28.8293 -3.10411
-37.0126 -26.4044 -2.66446
-37.3255 -27.7025 -2.50272
-39.04 -29.2379 -2.67738
-37.5397 -27.7456 -2.37436
-37.974 -28.0281 -2.09939
-36.6651 -27.2708 -2.99348
-39.0091 -29.0202 -2.50787
-36.6239 -26.873 -2.84054
-39.5216 -29.259 -2.70217
-39.138 -28.9214 -2.43383
-37.4472 -27.9389 -3.04468
-36.7031 -27.1835 -2.69336
-38.0189 -28.4141 -2.90824
-36.6868 -27.2757 -2.93959
-38.8038 -29.2005 -3.3563
-39.107 -29.3463 -2.92508
-38.7985 -28.8608 -2.43474
-37.9212 -28.314 -2.85994
-38.5052 -28.8087 -2.75039
-37.0217 -27.2196 -2.29689
-39.0039 -29.3091 -3.10021
-38.7055 -28.9896 -2.79825
-39.5932 -28.1985 -2.51783
-37.4418 -27.4922 -2.01053
-37.2761 -27.3394 -2.04955
-37.045 -26.3503 -2.80225
-38.0794 -28.3976 -2.50371
-37.7521 -28.126 -2.43444
-38.9971 -29.039 -2.54428
-37.5531 -27.7102 -2.37338
-38.5075 -28.8236 -2.93913
-38.6943 -28.6355 -2.31223
-38.5886 -28.8962 -2.79374
-39.2616 -29.229 -2.65434
-38.5232 -28.4044 -2.17491
-38.6871 -27.9458 -2.09911
-38.3656 -28.6501 -2.44033
-37.9915 -27.8418 -1.981
-39.8385 -29.0059 -2.68144
-38.8958 -28.8734 -2.46297
-36.8219 -26.6669 -2.48063
-38.2853 -28.6193 -3.02533
-39.8822 -28.9399 -2.68536
-38.1979 -28.466 -2.55119
-36.8398 -26.7893 -2.35391
-38.4891 -28.661 -2.41671
-39.4591 -29.398 -3.03916
-37.5121 -28.0012 -2.89832
-36.6687 -26.8954 -2.68962
-37.4165 -27.8706 -2.61118
-37.1235 -26.2891 -2.53455
-38.0744 -28.4245 -2.6557
-36.7609 -26.8072 -2.49345
-38.9719 -29.2921 -3.14896
-38.0556 -27.9711 -2.04061
-40.2396 -28.5203 -2.82149
-36.6549 -27.0151 -2.64943
-36.781 -27.0618 -2.40808
-36.5992 -27.0089 -2.79903
-37.0871 -27.0678 -2.09864
-36.7931 -26.7394 -2.4814
-38.0835 -27.6815 -2.30403
-37.3496 -27.6491 -2.39349
-38.894 -28.9492 -2.47585
-36.9911 -27.5766 -3.19098
-38.2826 -27.7144 -1.99588
-37.0007 -26.6397 -2.30855
-38.0434 -28.4208 -2.89719
-38.6653 -28.8885 -2.96126
-36.7373 -26.6916 -2.81374
-38.9047 -29.2439 -3.19051
-36.9034 -27.4564 -2.94061
-38.2552 -28.5687 -2.37391
-37.48 -27.6231 -2.22988
-37.7127 -28.1293 -2.96031
-37.0215 -27.3172 -2.31879
-37.8887 -28.1508 -2.36803
-39.6252 -29.3708 -2.93312
-37.3115 -27.75 -2.65597
-36.9697 -26.4289 -2.75779
-39.2637 -29.2159 -2.75111
-39.7204 -29.2197 -2.79613
-37.6113 -27.9271 -2.61231
-38.6755 -28.7172 -2.34649
-39.3963 -27.9055 -2.39255
-36.6925 -27.2246 -2.76646
-39.6001 -29.265 -2.68762
-38.5242 -28.8355 -3.08731
-37.4482 -27.2032 -2.00796
-37.3479 -27.5998 -2.29877
-36.7489 -27.3484 -3.11415
-36.5952 -26.9733 -2.81382
-38.5006 -28.7053 -2.49308
-36.6856 -26.7756 -2.99827
-37.8924 -28.2126 -2.74536
-38.0026 -28.0091 -2.09193
-39.0885 -27.5019 -2.19249
-37.0606 -27.4555 -2.5574
-37.759 -27.7923 -2.01976
-38.4639 -28.498 -2.19768
-37.949 -28.3018 -2.55578
-38.4603 -28.7661 -2.59296
-39.6476 -27.7767 -2.53518
-36.9771 -26.4002 -2.80877
-37.1048 -26.5019 -2.33125
-39.6276 -29.3813 -2.98991
-38.7999 -29.1603 -3.34971
-38.3092 -28.5568 -2.30194
-37.2314 -27.6834 -2.8238
-37.3968 -27.8924 -2.99352
-37.0994 -27.5221 -2.59113
-39.5616 -29.4162 -3.04076
-37.2077 -27.6096 -2.49107
-37.839 -27.9857 -2.228
-36.9478 -27.423 -2.91692
-39.554 -29.4036 -3.10173
-37.7688 -27.8203 -2.10217
-38.5486 -28.7955 -2.64152
-38.2457 -28.5677 -2.66411
-38.4374 -28.5113 -2.29388
-38.6128 -28.7451 -2.5512
-37.9084 -28.3105 -2.89517
-38.541 -28.4071 -2.45071
-40.1062 -28.9458 -3.25427
-37.8629 -28.2011 -2.49929
-38.7387 -28.7495 -2.38329
-37.273 -27.764 -2.75642
-37.205 -27.71 -2.94688
-37.264 -27.7551 -2.84909
-37.6726 -26.6621 -2.02512
-37.3942 -27.2923 -2.02891
-38.3253 -28.6859 -2.29192
-36.8079 -27.1123 -2.40208
-36.7259 -26.8497 -2.49986
-37.635 -27.1239 -1.98063
-37.9616 -27.6803 -2.31698
-40.1717 -28.8275 -3.14945
-36.9906 -27.1341 -2.16371
-40.2519 -28.5948 -2.89669
-39.3292 -28.7751 -2.47599
-39.6132 -29.3143 -2.77277
-37.4228 -27.6729 -2.39573
-38.8472 -29.1554 -3.25224
-39.9131 -29.1142 -2.81441
-38.1128 -28.0573 -2.00307
-37.6891 -28.0998 -2.88088
-37.321 -27.5766 -2.36169
-37.2457 -27.365 -2.20679
-36.6998 -27.0623 -2.53065
-36.7337 -27.1277 -2.85884
-39.6185 -29.3789 -3.01092
-37.9675 -28.3697 -2.9036
-38.6497 -28.7404 -2.35434
-37.3449 -27.3694 -2.09421
-38.2036 -28.3624 -2.43607
-39.0484 -29.2236 -2.86312
-39.7703 -29.2885 -2.99426
-38.9491 -29.16 -2.77788
-37.2194 -26.2965 -2.37448
-38.745 -28.9745 -3.04634
-39.0467 -27.3893 -2.23682
-36.7557 -27.2633 -2.79949
-37.0813 -27.239 -2.18108
-38.4169 -28.4561 -2.24265
-38.5445 -28.5273 -2.40991
-37.0001 -27.5399 -2.90421
-39.3087 -29.287 -2.69254
-40.2448 -28.4925 -2.81393
-38.8684 -28.8178 -2.42738
-36.9636 -26.4472 -2.59643
-39.452 -29.4314 -3.09758
-39.4022 -29.2069 -2.62206
-38.2169 -28.5108 -2.61342
-37.3704 -27.6524 -2.35091
-39.9239 -29.1657 -3.20237
-37.0625 -27.6025 -3.19507
-38.1034 -28.1089 -2.08708
-37.023 -27.4513 -2.38149
-38.9557 -29.2431 -2.95055
-38.0285 -28.2777 -2.44483
-39.0578 -29.2842 -2.75219
-37.5019 -26.3374 -2.19679
-37.3324 -26.246 -2.36898
-37.2444 -26.3037 -2.35741
-37.2632 -26.2613 -2.41754
-37.1445 -26.4008 -2.34596
-37.256 -26.2561 -2.44297
-37.0952 -26.4643 -2.33689
-37.2048 -26.2741 -2.46126
-37.0695 -26.4569 -2.39716
-37.1199 -26.2959 -2.51904
-37.2074 -26.1931 -2.70742
-37.2382 -26.1518 -2.79109
-36.7953 -26.7442 -2.45729
-36.7494 -26.8546 -2.40973
-36.7765 -26.7584 -2.43286
-36.7472 -26.8549 -2.43382
-37.1886 -26.1591 -2.84789
-37.1685 -26.1664 -2.8578
-36.8036 -26.8145 -2.5103
-36.8666 -26.5841 -2.61186
-37.0314 -26.3689 -2.75875
-37.1826 -26.1446 -2.90644
-36.8671 -26.5775 -2.63655
-37.0033 -26.3627 -2.83764
-36.7511 -26.7387 -2.56513
-36.8746 -26.5602 -2.69191
-37.4906 -27.8684 -2.82024
-36.8068 -26.6936 -2.65271
-36.9801 -26.3713 -2.84337
-37.0086 -27.5748 -3.08842
-36.9627 -26.381 -2.83953
-36.7994 -26.6906 -2.68122
-37.1019 -26.2635 -3.01976
-37.073 -26.2707 -3.04815
-36.7969 -26.679 -2.73973
-37.053 -26.2859 -3.02836
-36.7094 -26.8244 -2.66145
-36.9032 -26.4899 -2.92704
-36.9227 -26.4707 -2.96819
-36.7167 -26.711 -2.80563
-36.7456 -26.6807 -2.84769
-36.8811 -26.481 -3.01372
-36.8891 -26.4719 -3.03675
-36.7666 -26.6425 -2.98877
-36.659 -26.812 -2.85773
-36.6613 -26.8054 -2.89
-36.6862 -26.7831 -2.95134
-36.6652 -26.7974 -2.95335
-36.68 -26.7742 -3.02391
-37.294 -27.7165 -2.69994
-40.0064 -29.0489 -2.9726
-38.1911 -28.5674 -2.98113
-37.979 -26.4872 -2.13075
-37.6633 -26.734 -1.96858
-37.6824 -26.8002 -2.02066
-37.8621 -26.445 -2.12429
-37.8201 -26.4742 -2.10997
-37.608 -26.8344 -2.03432
-37.6423 -26.5898 -2.09222
-37.4122 -27.4537 -2.04063
-37.5198 -26.7566 -2.1074
-37.4103 -27.4162 -2.08118
-37.3631 -27.407 -2.04658
-37.3436 -27.3081 -2.04868
-37.32 -27.3903 -2.05076
-37.3082 -27.239 -2.05484
-37.2467 -27.2978 -2.05442
-37.2538 -27.2659 -2.056
-37.2971 -26.9841 -2.0883
-37.2573 -27.3511 -2.09652
-37.2674 -27.0013 -2.08699
-37.269 -27.3951 -2.11288
-37.1774 -27.0671 -2.04741
-37.2575 -27.4045 -2.14752
-37.196 -27.1954 -2.08555
-37.1543 -27.237 -2.06557
-37.2065 -27.3549 -2.14401
-37.2872 -27.4377 -2.19373
-37.1869 -27.0285 -2.13748
-37.2696 -27.4476 -2.20608
-37.1524 -27.2131 -2.10811
-37.1474 -27.1478 -2.10191
-37.103 -27.1699 -2.10222
-37.1685 -27.2722 -2.15505
-37.2302 -27.3937 -2.20737
-37.1642 -27.3468 -2.20292
-37.0555 -27.1151 -2.10896
-37.1475 -27.2967 -2.19038
-37.0729 -27.1777 -2.13586
-37.2566 -27.498 -2.2935
-37.2974 -27.491 -2.29647
-37.1203 -27.2978 -2.19981
-37.2111 -27.4507 -2.29729
-37.0155 -27.1188 -2.1559
-37.0141 -27.0428 -2.14536
-37.1594 -26.382 -2.31378
-37.0545 -27.1609 -2.19909
-37.114 -27.2772 -2.23521
-37.0208 -27.0301 -2.16832
-37.0203 -27.0174 -2.20367
-37.1038 -26.4143 -2.33433
-36.9987 -27.1137 -2.20043
-37.0347 -27.0009 -2.22403
-37.1107 -27.349 -2.29492
-37.0669 -27.3102 -2.25675
-37.0269 -27.1793 -2.2103
-37.0717 -26.4444 -2.3232
-37.0984 -27.2741 -2.27751
-37.1227 -26.3734 -2.38737
-37.0127 -27.1701 -2.24541
-37.1601 -27.4623 -2.34744
-37.1707 -26.2994 -2.46225
-37.027 -27.2419 -2.258
-37.002 -27.0978 -2.24947
-37.093 -26.372 -2.43639
-37.0777 -26.3961 -2.41141
-37.092 -27.352 -2.33028
-37.0298 -27.3206 -2.26741
-37.0084 -27.0842 -2.27814
-37.0006 -26.9949 -2.29892
-37.0205 -26.5757 -2.35234
-36.9619 -27.1189 -2.25899
-36.9241 -26.9829 -2.2274
-37.0003 -26.5883 -2.35757
-36.9754 -26.6128 -2.34488
-37.0655 -27.3636 -2.33968
-37.0414 -27.2987 -2.3252
-36.9727 -27.1867 -2.28542
-36.9713 -27.01 -2.30856
-37.0565 -27.3522 -2.37592
-37.0035 -27.3147 -2.3413
-36.9136 -27.1447 -2.27007
-36.8998 -26.8896 -2.29289
-37.0077 -26.4136 -2.48628
-37.1032 -27.4549 -2.39282
-36.9116 -26.9504 -2.33471
-36.9176 -27.1207 -2.30327
-37.072 -27.4909 -2.43645
-37.0025 -27.395 -2.39928
-36.8999 -27.2921 -2.34587
-36.945 -27.3391 -2.39448
-36.9929 -27.3708 -2.45951
-36.8402 -27.1617 -2.35809
-36.9646 -27.4034 -2.44711
-36.8653 -27.2135 -2.3923
-36.9231 -27.3468 -2.41124
-36.7667 -26.9576 -2.34229
-36.8634 -27.3007 -2.39788
-36.7852 -27.1167 -2.34802
-36.9052 -27.3502 -2.44313
-36.8435 -27.2328 -2.38871
-36.7903 -27.0134 -2.38613
-36.8465 -26.6217 -2.53931
-36.7554 -27.1369 -2.34689
-36.9022 -27.3252 -2.49489
-36.7581 -27.0977 -2.40645
-36.8764 -27.3538 -2.46672
-36.8681 -27.345 -2.50607
-36.8445 -27.2902 -2.47318
-36.9367 -27.3829 -2.54069
-36.8173 -27.2153 -2.44561
-36.9053 -27.3981 -2.54662
-36.7408 -27.1056 -2.4494
-36.9274 -26.4463 -2.79137
-36.7206 -27.1191 -2.45539
-36.8893 -27.3257 -2.55197
-36.9194 -26.4389 -2.82175
-36.7422 -27.0937 -2.50217
-36.7112 -26.9474 -2.49686
-36.7383 -27.0895 -2.52267
-36.863 -27.4021 -2.60429
-36.7524 -26.7347 -2.6843
-36.7948 -27.3025 -2.58965
-36.6795 -27.0411 -2.52453
-36.7757 -26.6988 -2.72871
-37.023 -27.5413 -2.75909
-36.8575 -27.3203 -2.66196
-36.839 -27.3556 -2.65015
-36.6798 -26.9161 -2.61314
-37.0003 -27.5482 -2.79354
-36.7638 -27.3007 -2.59357
-36.9099 -27.4529 -2.74225
-36.8691 -27.3871 -2.70159
-36.7108 -27.1662 -2.61729
-36.8093 -27.3392 -2.69905
-36.8061 -27.3406 -2.75127
-36.6485 -27.0085 -2.68151
-36.9588 -27.4791 -2.84322
-37.1256 -27.3468 -3.1085
-36.8254 -27.4012 -2.75914
-36.6796 -27.1663 -2.68847
-36.8958 -27.4307 -2.83601
-36.8491 -27.3996 -2.79141
-36.7618 -27.2965 -2.75045
-36.6083 -27.0397 -2.67634
-36.846 -27.3962 -2.83789
-36.6177 -26.8964 -2.78999
-36.9584 -27.4647 -2.95333
-36.8377 -27.3776 -2.84266
-36.6499 -27.1716 -2.74082
-36.972 -27.452 -2.97482
-36.8836 -27.3346 -2.92337
-36.7602 -27.3389 -2.79214
-36.6979 -27.2516 -2.73309
-36.8559 -27.4246 -2.8949
-36.7627 -27.3381 -2.83638
-36.6633 -27.2471 -2.75534
-36.6024 -27.1011 -2.79361
-36.9128 -27.4677 -2.99773
-36.8598 -27.4182 -2.94413
-36.6248 -27.1839 -2.75846
-36.7119 -26.7206 -3.07112
-36.9178 -27.4899 -2.99236
-36.6262 -27.1743 -2.78912
-36.5874 -27.0039 -2.83819
-36.8122 -27.3731 -2.94904
-36.6157 -27.1898 -2.80658
-36.6152 -27.165 -2.83922
-36.591 -27.0992 -2.85049
-36.594 -27.0644 -2.89613
-36.5727 -27.1059 -2.8383
-36.9509 -27.5182 -3.1017
-36.5863 -26.9748 -2.91536
-36.8521 -27.4158 -3.04668
-36.7023 -27.1615 -2.98459
-36.5891 -26.9626 -2.94562
-36.7352 -27.3229 -2.99449
-36.813 -27.0307 -3.20015
-36.608 -26.9276 -3.00721
-36.7871 -27.3693 -3.03263
-36.6739 -27.2834 -2.94881
-36.607 -27.1392 -2.93612
-36.8577 -27.3029 -3.1786
-36.8212 -27.4179 -3.10456
-36.8337 -27.3223 -3.15467
-36.7386 -27.3072 -3.06144
-36.9266 -27.5407 -3.18373
-36.6001 -27.044 -3.04048
-36.6166 -27.1144 -3.02697
-36.8113 -27.4171 -3.14858
-36.6752 -27.0377 -3.15241
-36.659 -27.2653 -3.04649
-36.7552 -27.3569 -3.14103
-36.8478 -27.4612 -3.23722
-36.7922 -27.4118 -3.19317
-36.8482 -27.4862 -3.25797
-36.7459 -27.3763 -3.19735
-36.6911 -27.3235 -3.13752
-36.9016 -27.5492 -3.30761
-36.8654 -27.4903 -3.29387
-36.6896 -27.326 -3.18412
-36.6926 -27.306 -3.2231
-37.9111 -28.2618 -2.7544
-38.277 -27.3075 -2.02325
-38.1063 -28.0505 -2.03592
-38.1089 -28.1001 -2.04343
-38.251 -26.7588 -2.07743
-38.0053 -27.9527 -2.02847
-37.9477 -27.9043 -2.00471
-38.1171 -26.602 -2.10427
-37.9018 -27.8623 -1.99976
-37.9206 -27.8515 -2.05472
-37.862 -27.8662 -2.05362
-37.7537 -27.7061 -2.00491
-37.7661 -27.7674 -2.03907
-37.7105 -27.7085 -2.0547
-37.7944 -27.8188 -2.0913
-37.8399 -27.8643 -2.13745
-37.7466 -27.7561 -2.09095
-37.7961 -27.8702 -2.14534
-37.636 -27.6119 -1.99614
-37.6579 -27.6577 -2.04575
-37.8393 -27.9095 -2.19841
-37.6888 -27.7085 -2.0872
-37.5901 -27.5462 -2.01089
-37.7421 -27.7442 -2.12905
-37.7061 -27.7617 -2.13705
-37.717 -27.8458 -2.14122
-37.618 -27.669 -2.09008
-37.5383 -27.4995 -2.01712
-37.6818 -27.6966 -2.13246
-37.5023 -27.5344 -1.99542
-37.4967 -27.4416 -2.01777
-37.4617 -27.4646 -2.0148
-37.5358 -27.5575 -2.08594
-37.4478 -27.4655 -2.0443
-37.8812 -28.0074 -2.35073
-37.5062 -27.5731 -2.0975
-37.3879 -27.44 -2.00785
-37.7071 -27.8943 -2.24502
-37.771 -27.9175 -2.2972
-37.5883 -27.7406 -2.16704
-37.5735 -27.6607 -2.18878
-37.8418 -28.0971 -2.3767
-37.7497 -27.9198 -2.33702
-37.4783 -27.5869 -2.11036
-37.4083 -27.4723 -2.09384
-37.8101 -28.0391 -2.35375
-37.8036 -27.9748 -2.35778
-37.3698 -27.4316 -2.05428
-37.4585 -27.5894 -2.13786
-37.6116 -27.6974 -2.25326
-37.5067 -27.6171 -2.19857
-37.3677 -27.4122 -2.09789
-37.2845 -27.3395 -2.01295
-37.7518 -28.001 -2.35422
-37.4144 -27.5429 -2.12044
-37.4907 -27.6328 -2.18532
-37.696 -27.9505 -2.35421
-37.5038 -27.606 -2.23296
-37.4166 -27.5236 -2.1621
-37.3885 -27.4664 -2.13965
-37.7531 -27.9986 -2.39223
-37.3512 -27.4003 -2.14964
-37.2576 -27.3194 -2.09308
-37.7676 -28.0446 -2.44136
-37.3728 -27.4648 -2.16955
-37.7397 -28.0503 -2.40398
-37.6206 -27.8235 -2.35182
-37.6296 -27.8965 -2.36098
-37.4961 -27.5845 -2.30438
-37.3082 -27.4037 -2.14525
-37.6402 -27.904 -2.38026
-37.562 -27.7764 -2.35263
-37.3318 -27.4833 -2.198
-37.2083 -27.3065 -2.13289
-37.6543 -27.9501 -2.44514
-37.5054 -27.7253 -2.34447
-37.522 -27.8079 -2.35683
-37.4646 -27.6668 -2.34298
-37.1226 -27.1306 -2.11319
-37.2855 -27.5201 -2.19521
-37.625 -27.9699 -2.45037
-37.1929 -27.3225 -2.19156
-37.5947 -27.8999 -2.44471
-37.512 -27.8007 -2.39438
-37.197 -26.3651 -2.36993
-37.1426 -26.4549 -2.33575
-37.3769 -27.5771 -2.31393
-37.611 -27.957 -2.49745
-37.5972 -27.8849 -2.47803
-37.5226 -27.8653 -2.41041
-37.2115 -27.3738 -2.24629
-37.2384 -27.3464 -2.25596
-37.0945 -27.2182 -2.18324
-37.5185 -27.8611 -2.4461
-37.4106 -27.6935 -2.393
-37.6558 -27.9141 -2.55982
-37.5636 -27.9109 -2.46139
-37.3042 -27.5127 -2.32893
-37.7545 -28.1147 -2.58864
-37.6427 -27.917 -2.57911
-37.4416 -27.7439 -2.43892
-37.6241 -27.9297 -2.56807
-37.4691 -27.8889 -2.44169
-37.4593 -27.8177 -2.4495
-37.3898 -27.6882 -2.43288
-37.241 -27.4925 -2.33645
-37.5376 -27.9031 -2.54073
-37.3803 -27.7078 -2.41817
-37.2149 -27.4248 -2.32895
-36.9619 -26.7023 -2.28648
-36.9668 -26.6753 -2.31301
-37.3196 -27.6654 -2.4084
-37.2536 -27.555 -2.37751
-37.5833 -27.948 -2.58818
-36.9654 -26.9967 -2.2215
-37.6014 -27.9305 -2.62274
-37.5494 -27.8871 -2.58239
-36.9506 -27.0185 -2.2133
-37.0343 -27.1078 -2.28542
-36.9321 -26.7353 -2.2883
-37.2646 -27.6169 -2.40316
-36.9404 -26.6983 -2.32228
-37.3002 -27.6667 -2.44275
-36.9297 -26.7128 -2.31964
-37.3493 -27.6967 -2.48591
-37.1967 -27.5054 -2.38708
-36.9104 -26.748 -2.30362
-37.211 -27.5609 -2.39973
-36.922 -26.7045 -2.341
-37.2139 -27.5823 -2.38497
-37.5704 -27.9412 -2.65472
-37.2463 -27.6154 -2.4346
-37.2052 -27.5581 -2.43146
-36.9477 -27.0792 -2.29386
-37.2355 -27.6372 -2.42617
-37.2266 -27.6366 -2.44521
-37.3584 -27.7441 -2.58
-37.2724 -27.6727 -2.49262
-37.4061 -27.8929 -2.57793
-37.1692 -27.5977 -2.43219
-37.4096 -27.8585 -2.64952
-36.9785 -27.3287 -2.35468
-37.6481 -28.0489 -2.83811
-37.5046 -27.9142 -2.74302
-37.0748 -27.5053 -2.4049
-36.936 -27.2571 -2.37217
-36.9087 -27.1785 -2.37125
-36.8862 -27.2074 -2.36127
-36.8922 -27.1945 -2.37225
-36.7702 -26.828 -2.40601
-37.6052 -28.055 -2.89812
-37.2515 -27.6345 -2.64727
-37.6285 -28.119 -2.88661
-37.6573 -28.1116 -2.89845
-37.5558 -28.0013 -2.84772
-37.4075 -27.854 -2.79475
-37.1026 -27.5523 -2.53493
-37.576 -28.0581 -2.90009
-37.3425 -27.8047 -2.75534
-37.501 -27.9456 -2.88737
-37.4603 -27.8925 -2.8522
-37.591 -28.0594 -2.94148
-37.6162 -28.1086 -2.95243
-36.8665 -27.2544 -2.49054
-37.1978 -27.6548 -2.70493
-37.6112 -28.1073 -2.99438
-37.4204 -27.9044 -2.85709
-37.4033 -27.8531 -2.84893
-37.2593 -27.7107 -2.75139
-37.6012 -28.0503 -2.97456
-37.5105 -28.0021 -2.94058
-36.7231 -26.9694 -2.45683
-37.3208 -27.8141 -2.77545
-37.0784 -27.5888 -2.63576
-36.9985 -27.5061 -2.58471
-37.4683 -27.958 -2.95315
-37.391 -27.8402 -2.89445
-37.3232 -27.8016 -2.84101
-37.1214 -27.6364 -2.66328
-37.651 -28.07 -3.10062
-36.7326 -27.0666 -2.47487
-37.1036 -27.639 -2.69423
-37.0035 -27.4693 -2.61654
-36.9217 -27.3753 -2.54789
-37.1742 -27.6555 -2.75549
-37.3154 -27.7928 -2.89101
-37.557 -28.0538 -3.03226
-36.8953 -27.3726 -2.59641
-37.655 -27.9745 -3.19794
-37.1561 -27.6601 -2.80247
-36.7541 -27.2448 -2.5137
-37.3023 -27.7756 -2.94167
-37.0225 -27.513 -2.70926
-36.7555 -27.2282 -2.53773
-37.2482 -27.7469 -2.89456
-36.7471 -27.2367 -2.53785
-37.0926 -27.614 -2.7874
-36.9563 -27.463 -2.70879
-36.7845 -27.2752 -2.59137
-37.3802 -27.9003 -3.00327
-37.203 -27.7068 -2.89577
-37.1452 -27.6526 -2.84464
-36.6881 -26.7966 -2.73439
-37.1055 -27.5713 -2.85828
-37.2968 -27.7754 -2.99302
-37.1467 -27.654 -2.89812
-36.8941 -27.4099 -2.70927
-36.9874 -27.5036 -2.779
-37.3563 -27.8489 -3.04549
-37.2375 -27.7185 -2.99346
-37.1703 -27.6896 -2.94494
-36.7604 -27.2738 -2.63412
-37.2273 -27.7342 -2.98045
-36.8439 -27.3525 -2.73421
-37.264 -27.7625 -3.03962
-37.2249 -27.4928 -3.12961
-36.6914 -27.2536 -2.60173
-37.294 -27.752 -3.0954
-37.182 -27.5484 -3.06069
-36.6927 -27.2214 -2.65046
-36.6604 -27.1346 -2.65857
-37.136 -27.6029 -3.00291
-36.7411 -27.225 -2.74875
-37.1674 -27.6593 -3.0438
-37.0478 -27.5965 -2.93636
-37.1938 -27.6564 -3.09727
-37.1872 -27.6225 -3.13463
-37.0974 -27.6209 -3.0403
-36.6307 -27.124 -2.72103
-37.0488 -27.6026 -2.99441
-36.8038 -27.3519 -2.84481
-36.7623 -27.0895 -2.94186
-36.5927 -26.9601 -2.83588
-36.8788 -27.4397 -2.92421
-36.7493 -27.0449 -3.03877
-37.0136 -27.5705 -3.04969
-36.6387 -27.1844 -2.79687
-36.7911 -27.3221 -2.90764
-37.0187 -27.414 -3.21434
-36.7654 -27.3402 -2.91804
-36.7028 -27.2963 -2.89104
-36.7237 -27.0591 -3.05785
-36.6073 -27.1881 -2.84256
-36.9866 -27.4514 -3.18002
-36.7135 -27.0539 -3.08365
-36.5801 -27.0443 -2.91875
-37.0697 -27.5812 -3.23113
-36.7353 -26.9437 -3.23243
-36.9434 -27.5225 -3.14024
-36.7033 -27.0027 -3.18707
-36.8578 -27.4552 -3.09288
-36.8877 -27.4186 -3.20686
-36.9062 -27.5102 -3.19519
-36.957 -27.5444 -3.29332
-36.6906 -27.1106 -3.24382
-36.7202 -27.3519 -3.15364
-37.5784 -27.0188 -2.01259
-39.0443 -29.2055 -2.55907
-38.0076 -28.2409 -2.39398
-39.5647 -28.111 -2.50257
-37.8108 -27.7993 -2.12269
-39.7235 -27.9262 -2.55345
-39.6984 -27.8426 -2.54504
-39.6845 -28.1525 -2.56456
-39.6108 -27.9889 -2.49977
-39.65 -27.8585 -2.51625
-39.5345 -28.0313 -2.46351
-39.6161 -27.773 -2.50251
-39.5255 -28.1063 -2.49069
-39.4362 -27.8819 -2.40774
-39.241 -27.4886 -2.258
-39.4741 -28.1497 -2.48911
-39.2681 -27.6686 -2.33677
-39.2195 -27.5957 -2.31058
-39.1081 -27.4646 -2.24542
-38.9153 -27.9276 -2.1677
-38.754 -27.761 -2.08848
-38.5253 -28.0121 -2.0607
-38.4951 -28.0318 -2.05848
-38.4966 -28.4596 -2.19004
-38.464 -28.428 -2.15806
-38.4052 -28.3935 -2.13904
-38.3686 -28.3495 -2.10923
-38.2295 -26.758 -2.08254
-38.3115 -28.2275 -2.06566
-38.2514 -28.1571 -2.03679
-38.5085 -28.5554 -2.20194
-38.3684 -28.3399 -2.13897
-38.117 -26.9365 -2.01862
-38.1952 -28.0623 -2.03714
-38.2791 -28.236 -2.09655
-38.4884 -28.2899 -2.30789
-38.0643 -26.6375 -2.08136
-38.4173 -28.5006 -2.24278
-38.0187 -26.7219 -2.05047
-38.4892 -28.2828 -2.33001
-38.496 -28.1852 -2.35649
-38.5012 -28.2692 -2.35313
-38.1609 -28.1529 -2.08643
-38.4875 -28.185 -2.3804
-38.417 -28.504 -2.28825
-38.4674 -28.4447 -2.34813
-38.0683 -28.0639 -2.05391
-37.7918 -26.8853 -2.01519
-37.7688 -26.927 -2.00283
-38.0603 -28.1214 -2.13074
-37.7294 -26.9677 -2.01457
-38.0419 -28.0439 -2.14191
-37.9532 -27.8633 -2.09622
-37.7096 -26.6106 -2.0662
-38.2693 -28.639 -2.29071
-37.6836 -27.0423 -1.99931
-38.2937 -28.604 -2.30336
-37.6988 -26.9867 -2.03674
-37.6214 -26.8138 -1.99547
-38.3517 -28.7338 -2.35348
-37.8465 -27.8891 -2.04675
-37.6603 -27.0431 -2.03069
-38.3148 -28.6543 -2.38132
-37.5959 -27.1692 -1.98705
-37.5708 -26.867 -2.01398
-37.7213 -27.6223 -2.01711
-37.7941 -27.8358 -2.05531
-38.2852 -28.5377 -2.38578
-37.5766 -27.1916 -1.99028
-37.5464 -26.9143 -2.00297
-38.38 -28.6248 -2.46775
-38.3039 -28.4376 -2.43354
-38.3031 -28.5138 -2.44762
-38.2602 -28.4743 -2.40834
-37.508 -26.9736 -1.99943
-38.3097 -28.5576 -2.44894
-38.2355 -28.407 -2.40683
-37.6619 -27.5643 -2.03065
-37.5169 -26.9329 -2.02524
-37.5366 -27.2444 -1.99011
-38.2049 -28.4114 -2.43993
-37.6109 -27.5168 -2.01561
-37.5138 -27.2778 -1.98667
-37.4862 -27.1674 -1.99142
-37.8087 -27.8899 -2.15594
-38.1861 -28.3506 -2.41355
-38.359 -28.6336 -2.50623
-37.4423 -27.072 -1.99646
-37.5578 -27.5962 -1.99322
-37.5483 -27.4721 -2.01271
-38.3551 -28.6231 -2.54175
-38.2639 -28.527 -2.50302
-37.4604 -27.3501 -1.98464
-38.2397 -28.459 -2.48901
-38.1452 -28.3032 -2.43217
-37.5434 -27.4593 -2.03482
-38.0665 -27.7672 -2.49322
-38.0443 -27.7893 -2.48421
-38.1008 -28.3151 -2.44154
-37.7358 -27.8129 -2.1976
-38.0114 -27.8123 -2.44305
-38.2504 -28.5401 -2.51134
-38.0392 -28.1997 -2.40393
-37.4231 -27.3898 -1.9948
-38.0107 -28.2155 -2.40672
-37.4415 -27.3171 -2.04531
-37.984 -28.1565 -2.39412
-38.1915 -28.4848 -2.52722
-37.3637 -27.3257 -2.0024
-37.3806 -27.252 -2.0518
-37.3289 -27.2241 -2.00764
-37.3074 -27.2554 -2.00753
-37.7576 -27.9445 -2.29271
-38.1122 -28.3628 -2.52697
-38.1697 -28.4891 -2.55068
-38.1274 -28.4395 -2.51553
-38.0491 -28.3443 -2.46478
-37.9708 -28.2358 -2.43808
-38.1623 -28.4612 -2.55382
-37.3101 -27.36 -2.04137
-38.3026 -28.6139 -2.68974
-38.0076 -28.2704 -2.49208
-37.8363 -28.0078 -2.37933
-38.1041 -28.4051 -2.54629
-37.9191 -28.1942 -2.42023
-37.9661 -28.2238 -2.48212
-38.1937 -28.5367 -2.62057
-38.1679 -28.4641 -2.64991
-37.8544 -28.1419 -2.44607
-37.8116 -28.1008 -2.40257
-37.9193 -28.2472 -2.51169
-37.7866 -28.0259 -2.42919
-38.2577 -28.639 -2.74868
-37.9498 -28.1974 -2.59171
-37.8166 -28.1469 -2.47644
-37.942 -28.2885 -2.57885
-37.847 -28.1472 -2.50613
-37.8064 -28.1165 -2.48675
-38.3095 -28.6498 -2.84474
-37.7647 -28.1063 -2.4968
-38.1613 -28.501 -2.74757
-37.9506 -28.2787 -2.61007
-37.8778 -28.2647 -2.54872
-37.2093 -27.3818 -2.15607
-38.3093 -28.6701 -2.91497
-38.105 -28.4612 -2.79405
-37.9333 -28.2652 -2.63724
-38.9221 -29.1459 -2.94755
-37.8178 -28.2077 -2.54863
-37.7901 -28.1498 -2.53487
-37.8897 -28.226 -2.637
-37.7655 -28.1081 -2.54516
-37.5685 -27.829 -2.42886
-38.2173 -28.5634 -2.86111
-37.8616 -28.2397 -2.60128
-38.2781 -28.6877 -2.90921
-38.2749 -28.6869 -2.92978
-37.9544 -28.3139 -2.7491
-38.204 -28.5628 -2.90177
-38.1476 -28.5074 -2.8933
-37.3812 -27.6057 -2.3906
-37.998 -28.3693 -2.78728
-38.0495 -28.4147 -2.84732
-37.8525 -28.2375 -2.6848
-37.1903 -27.4112 -2.29183
-38.2481 -28.6179 -2.9939
-37.9072 -28.2565 -2.79607
-37.2227 -27.5091 -2.28577
-37.8072 -28.1794 -2.69014
-38.2647 -28.655 -3.00484
-37.7143 -28.0999 -2.63604
-38.299 -28.6651 -3.048
-37.718 -28.0757 -2.65981
-38.1423 -28.5025 -2.98488
-38.0064 -28.3992 -2.8545
-37.3373 -27.6276 -2.42709
-38.1034 -28.5022 -2.94897
-38.0673 -28.4671 -2.95395
-37.9916 -28.3578 -2.89354
-38.1147 -28.5176 -2.9978
-37.9569 -28.3526 -2.85189
-37.8937 -28.2568 -2.84554
-36.8929 -26.8589 -2.29646
-38.2082 -28.6068 -3.04089
-37.7803 -28.1834 -2.73683
-37.5571 -27.9469 -2.59655
-38.2265 -28.6097 -3.0728
-37.1966 -27.4245 -2.41428
-37.7557 -28.1524 -2.73943
-37.7494 -28.0929 -2.79137
-37.3489 -27.6801 -2.49837
-37.3107 -27.6132 -2.48569
-37.8428 -28.2117 -2.84007
-37.1318 -27.4096 -2.37269
-37.4462 -27.8922 -2.52487
-37.8201 -28.2132 -2.84766
-37.1132 -27.4412 -2.36543
-37.7716 -28.1668 -2.8022
-37.0605 -27.3898 -2.34643
-37.0373 -27.2795 -2.3402
-37.4103 -27.8047 -2.55249
-37.9542 -28.3673 -2.94305
-37.4661 -27.8624 -2.59966
-37.3993 -27.8319 -2.52686
-37.1276 -27.582 -2.33816
-38.1191 -28.4914 -3.09736
-38.0405 -28.4648 -3.03614
-37.9026 -28.3066 -2.94428
-37.1153 -27.5484 -2.39161
-37.8013 -28.2059 -2.89339
-37.7503 -28.1686 -2.84433
-37.7 -28.1051 -2.84565
-37.668 -28.0868 -2.74281
-37.7176 -28.1213 -2.79172
-37.8481 -28.2589 -2.94117
-37.5098 -27.9328 -2.68822
-37.5342 -27.9001 -2.73739
-37.9655 -28.4066 -3.03918
-37.8163 -28.2703 -2.95729
-37.1821 -27.6339 -2.49278
-37.5931 -28.0055 -2.8395
-37.164 -27.6179 -2.53872
-37.8103 -28.2622 -3.00288
-37.6606 -28.138 -2.86279
-37.0322 -27.4439 -2.47167
-37.659 -28.1333 -2.87848
-37.4456 -27.8683 -2.7868
-37.3926 -27.8203 -2.75101
-37.0232 -27.4613 -2.46601
-37.87 -28.289 -3.08732
-37.3417 -27.7672 -2.7234
-37.8021 -28.2556 -3.04087
-37.753 -28.209 -2.99159
-37.3295 -27.7881 -2.71024
-37.314 -27.7866 -2.73808
-37.2873 -27.7031 -2.73035
-37.6286 -28.1335 -2.9442
-37.5463 -28.0056 -2.93184
-37.1147 -27.6104 -2.61921
-36.9288 -27.4036 -2.50571
-37.6581 -28.145 -3.03241
-37.6067 -28.0948 -3.0266
-37.1911 -27.6849 -2.73372
-36.995 -27.5369 -2.56968
-36.9441 -27.4565 -2.57656
-36.8461 -27.3244 -2.54415
-37.3365 -27.7965 -2.87196
-36.9366 -27.4818 -2.56092
-37.0706 -27.6018 -2.69361
-36.9724 -27.5246 -2.61388
-36.9042 -27.4405 -2.64577
-37.1506 -27.6832 -2.79813
-36.8564 -27.4389 -2.56597
-37.2916 -27.7823 -2.97242
-37.1425 -27.6189 -2.89973
-36.7846 -27.3123 -2.63207
-37.1368 -27.5908 -2.94752
-37.0604 -27.5785 -2.90319
-37.1184 -27.6111 -2.96032
-37.2124 -27.4315 -3.25
-37.0046 -27.523 -2.88488
-37.215 -27.6997 -3.07404
-36.988 -27.498 -2.93118
-36.7265 -27.117 -2.87722
-36.5921 -27.0383 -2.80371
-37.002 -27.5845 -2.98326
-36.7953 -27.3063 -2.92383
-36.6658 -27.1724 -2.90316
-36.8171 -27.4048 -2.95281
-36.647 -27.1383 -2.95643
-36.7249 -27.3358 -2.98611
-36.9837 -27.5825 -3.19429
-36.7481 -27.3763 -3.24619
-36.6859 -27.2408 -3.30279
-39.4977 -29.4128 -3.04952
-39.0063 -29.2015 -2.59681
-39.2211 -28.5847 -2.47728
-38.3772 -27.5702 -2.01723
-39.1956 -28.6023 -2.47037
-40.2477 -28.5773 -2.81188
-39.6975 -27.8279 -2.54883
-39.6441 -28.094 -2.54922
-39.6952 -27.9311 -2.58269
-39.5862 -27.9237 -2.49626
-39.5891 -27.7976 -2.50303
-39.5068 -27.7556 -2.45892
-39.6043 -28.0117 -2.52777
-39.3387 -27.5767 -2.32815
-39.3012 -27.5141 -2.29884
-39.3023 -27.6006 -2.34026
-39.1677 -27.5086 -2.25075
-39.2519 -27.5453 -2.31458
-39.5207 -28.1574 -2.51068
-39.3296 -27.6821 -2.38388
-39.5115 -28.2924 -2.52908
-38.9007 -27.9392 -2.15892
-39.3183 -28.4301 -2.47605
-38.8379 -27.9942 -2.1623
-38.6195 -27.1992 -2.07463
-38.796 -27.9054 -2.17978
-39.2431 -28.5704 -2.48051
-38.6015 -27.2273 -2.06978
-38.5934 -27.2318 -2.0761
-39.1441 -28.5546 -2.43132
-38.528 -27.168 -2.05635
-38.6946 -27.924 -2.12024
-39.0974 -28.5907 -2.4125
-39.1669 -28.6188 -2.47233
-39.0694 -28.6116 -2.40362
-39.1395 -28.6371 -2.46767
-38.4441 -27.1088 -2.05508
-39.0999 -28.6606 -2.44897
-38.3855 -27.2282 -2.02235
-38.3499 -27.2933 -2.00943
-39.2623 -29.1609 -2.59311
-38.3265 -27.3255 -2.01085
-39.2047 -29.1519 -2.54684
-38.3672 -27.5817 -2.01898
-38.3113 -27.3528 -2.00588
-38.3584 -27.5882 -2.02414
-39.0561 -29.0197 -2.45444
-39.1565 -29.1921 -2.55146
-38.8892 -28.6563 -2.35756
-39.094 -28.9985 -2.49549
-38.9579 -28.7668 -2.41167
-38.9014 -28.6387 -2.38266
-39.1568 -29.1631 -2.54665
-38.9899 -28.9911 -2.42676
-39.0264 -29.0479 -2.45613
-39.0442 -29.0193 -2.49147
-38.1936 -27.5467 -1.98352
-39.1127 -29.2051 -2.55493
-38.4973 -28.4433 -2.15139
-39.0602 -29.1621 -2.55179
-38.8591 -28.8306 -2.40538
-38.1618 -27.5731 -2.00169
-38.8614 -28.9079 -2.41674
-38.8017 -28.7043 -2.38835
-38.5944 -28.5613 -2.22916
-38.7668 -28.7456 -2.35316
-38.6038 -28.6397 -2.2553
-38.4093 -28.4254 -2.10471
-38.7054 -28.707 -2.31449
-38.8535 -28.9 -2.44805
-38.5485 -28.5162 -2.2319
-38.7425 -28.8402 -2.355
-38.7159 -28.7726 -2.36292
-38.6736 -28.7369 -2.31252
-38.2942 -28.1327 -2.08965
-38.9126 -29.0142 -2.50051
-38.8607 -28.9693 -2.48899
-38.273 -28.164 -2.07927
-38.1344 -27.9054 -2.00036
-38.1061 -27.972 -1.96963
-38.0676 -27.7172 -1.99444
-38.5951 -28.6465 -2.29363
-38.7757 -28.8712 -2.44329
-38.6117 -28.6762 -2.34727
-38.6697 -28.7067 -2.37407
-38.8386 -28.9825 -2.48851
-38.0886 -27.9641 -2.00225
-38.2624 -28.1384 -2.12891
-38.7451 -28.8904 -2.45491
-38.0117 -27.8083 -1.98502
-38.4743 -28.5722 -2.24509
-38.7887 -28.8474 -2.49636
-38.1351 -28.1335 -2.02726
-38.6704 -28.788 -2.40903
-38.0741 -27.9775 -2.00824
-38.036 -27.9065 -1.9953
-38.6392 -28.7327 -2.38865
-38.8789 -29.1054 -2.5386
-38.8141 -28.9948 -2.51399
-38.7555 -28.8671 -2.49282
-38.7077 -28.8068 -2.49201
-38.6226 -28.7399 -2.39754
-38.6085 -28.7016 -2.39678
-38.7388 -28.7922 -2.50712
-38.6485 -28.7934 -2.4455
-38.5922 -28.669 -2.38963
-38.7593 -28.9554 -2.50595
-38.67 -28.7596 -2.45252
-38.5671 -28.6939 -2.40363
-38.8002 -29.0019 -2.53122
-38.7718 -28.9302 -2.53443
-38.7433 -28.9514 -2.53718
-38.7136 -28.8906 -2.51458
