22.6516 21.3826 -1.84284
22.0988 20.8847 -1.6388
21.6044 20.4396 -1.84657
21.6612 22.5335 -0.752201
21.6579 20.479 -1.79013
22.8947 22.6055 -0.665504
21.5986 20.565 -1.25359
22.3457 22.1445 -0.66328
23.8914 22.5501 -1.78569
23.3407 22.4272 -0.694977
20.9564 20.1368 -1.43105
23.412 22.3004 -1.09895
21.7512 21.5413 -0.72398
22.6075 21.9651 -0.645767
23.2788 21.8927 -1.6395
21.4868 20.3493 -1.64856
21.0579 22.174 -1.40322
22.2962 22.8891 -1.62222
20.551 21.3458 -1.34606
20.2763 20.7395 -1.50945
20.6323 20.0785 -1.80437
21.2977 20.6011 -1.22649
22.7633 21.4802 -1.64254
22.0257 21.2174 -0.715454
23.031 21.702 -1.89052
23.4421 22.8318 -0.73476
20.3385 20.7953 -1.46199
21.4654 21.647 -0.802406
20.1067 20.654 -1.75417
21.9416 20.7431 -1.59789
23.1782 22.9299 -0.697144
20.9468 20.0439 -1.89518
20.6047 21.4534 -1.36041
23.7546 22.449 -1.88725
22.1092 21.9353 -0.668839
21.6356 20.4862 -1.54193
22.8146 21.8657 -0.742844
21.3938 20.2868 -1.4932
23.4973 22.1206 -1.88369
20.6825 21.7184 -1.26498
22.8293 21.6147 -1.24869
22.1004 20.9926 -1.24109
22.9928 21.6832 -1.7927
22.3965 23.1391 -0.753036
23.2995 22.3351 -0.783794
22.8785 21.961 -0.689064
21.7525 20.5617 -1.69994
23.6431 22.9963 -1.14091
22.4544 21.2032 -1.65182
21.4985 20.53 -1.23663
23.1919 21.8334 -1.80222
20.7764 20.2458 -1.58819
21.7924 21.496 -0.728027
22.5451 21.2871 -1.69313
20.9419 20.0295 -1.70096
23.1364 21.8313 -1.39844
23.016 21.8226 -1.18524
22.1526 20.913 -1.59495
22.3868 21.4882 -0.796867
22.3867 21.187 -1.35405
21.3886 20.2497 -1.85018
22.8292 23.0713 -0.70591
22.8941 22.4051 -0.652271
22.1814 21.5504 -0.689354
20.834 21.093 -1.32349
22.1622 21.7668 -1.10124
22.2622 22.5549 -0.699162
23.3919 22.4781 -0.695442
21.0191 22.1296 -1.80449
21.247 22.3375 -1.38881
21.2947 20.188 -1.64202
22.3058 21.6441 -0.878342
22.5359 21.527 -0.860802
20.6728 20.7061 -1.38208
23.5923 23.0896 -1.45549
21.4438 21.9516 -1.70061
20.558 20.1426 -1.92808
21.3313 20.1837 -1.84701
22.1998 22.8078 -0.735901
22.2687 21.2077 -1.20554
23.0577 21.8163 -1.2367
21.8385 21.7891 -0.724766
21.5166 20.4837 -1.9442
20.1203 20.8684 -1.58347
22.3919 21.5892 -0.665665
23.8602 22.5317 -1.87502
23.6714 23.16 -1.84599
22.454 21.3311 -1.16381
22.2023 20.9568 -1.59549
21.9924 22.2055 -1.24948
22.8363 21.6448 -1.15437
22.9677 21.6862 -1.47586
21.9376 22.3462 -0.716553
22.16 20.9268 -1.6474
20.2698 20.4955 -2.05057
21.1704 22.2254 -1.58187
22.3482 22.4527 -1.65834
23.2534 22.1351 -1.0747
22.2401 21.053 -1.39839
21.4824 20.2851 -2.19437
23.7733 22.3605 -1.75507
22.2259 22.828 -1.71414
23.2981 22.0719 -1.22535
21.9673 20.758 -1.7748
21.8067 20.6646 -1.43617
20.8428 20.1935 -1.45045
23.4508 22.0786 -1.99718
20.655 20.5987 -1.38576
20.1666 20.5565 -1.73199
22.6307 21.576 -1.19254
21.1051 20.0883 -1.84162
21.8683 21.3039 -0.751617
23.3955 22.0346 -1.69057
20.5835 21.6881 -1.31524
20.704 21.0425 -1.30675
21.4526 20.5497 -1.20725
20.8904 20.6926 -1.30708
21.5003 20.4215 -1.81015
23.2566 21.9302 -1.4917
22.2029 20.9927 -1.85366
23.5633 22.4518 -1.07085
22.5193 21.479 -1.00776
21.1648 22.2105 -1.36076
23.1598 21.9159 -1.23786
22.2798 22.5265 -1.67058
20.1756 20.5275 -1.96634
22.2823 21.1411 -1.25229
22.7636 22.893 -0.690517
22.2814 22.7873 -1.71302
22.2746 21.6305 -0.964344
23.2992 22.0047 -1.33893
21.4225 20.2563 -1.96162
21.6827 22.6004 -0.761955
22.2909 21.9068 -0.679844
22.7997 22.6168 -0.676945
23.5769 22.6216 -0.715172
23.2508 22.1835 -0.900558
22.7348 21.4442 -1.84995
23.2787 21.9111 -1.49907
22.0676 21.2212 -0.848248
20.432 21.1266 -1.39674
22.5347 22.1988 -0.661041
21.0886 20.114 -1.49649
21.2868 20.5407 -1.25848
20.6823 20.0872 -2.03895
22.1638 22.7073 -1.72
23.1425 22.1415 -1.00313
21.4408 22.3972 -1.69004
23.2446 22.9192 -0.710926
20.0986 20.7881 -1.65915
21.6399 21.7969 -0.741043
20.7816 20.2388 -1.4107
21.3521 21.8984 -1.70904
22.0426 21.2985 -0.70063
23.6637 22.5758 -0.927132
21.8495 20.6884 -1.74227
22.7955 21.646 -1.14914
22.9765 23.1198 -0.717869
22.9618 22.1984 -1.10289
22.7833 22.4647 -1.1402
22.2067 21.3822 -0.737244
23.2551 21.9738 -2.03593
21.5714 21.7656 -1.72136
21.7224 22.143 -0.755257
21.3407 20.4805 -1.21316
23.9226 22.7005 -1.69035
22.1531 21.6497 -1.45117
20.5978 20.1304 -1.99748
22.9479 21.6884 -1.39914
21.0992 20.3968 -1.32465
22.4485 21.2343 -1.34838
22.8409 22.0984 -0.649757
22.8582 21.5503 -1.54843
22.8393 21.9753 -0.658115
22.737 22.4431 -0.663734
21.1471 22.1906 -1.51638
23.2153 22.2176 -0.765919
20.5 20.539 -1.45893
22.8801 22.2191 -1.32646
21.9319 21.0563 -0.853508
20.6963 20.851 -1.31674
23.7952 22.4113 -1.73585
22.9665 23.1245 -0.714813
22.9906 21.8137 -1.13592
23.2093 22.9813 -0.728561
22.5213 21.2464 -1.79724
20.8137 21.8607 -1.23031
21.1097 20.3936 -1.30524
22.7387 21.5626 -1.20642
23.0654 21.7518 -1.64763
21.9906 20.7898 -1.98662
20.6023 20.9145 -1.35684
21.6986 20.8258 -0.996967
22.4455 22.6617 -0.693176
21.0811 20.5404 -1.28217
23.4275 22.1228 -1.34872
22.7024 22.5977 -0.666237
22.7343 23.2931 -0.767845
21.8941 22.6917 -0.732933
22.4454 21.4382 -0.983795
23.3241 22.1526 -1.03951
22.5695 21.4591 -1.06701
22.2664 21.4432 -0.726086
23.3612 21.9495 -2.10164
22.3927 21.1427 -1.63775
21.8851 20.7935 -1.24939
20.3202 20.5303 -1.57224
21.4802 22.0629 -0.784187
22.8028 22.5637 -0.663342
22.9558 21.9801 -0.845448
23.3483 22.3655 -0.732063
22.8466 21.5125 -1.90254
21.9155 22.4041 -0.729691
22.768 22.1017 -0.628277
22.16 20.9389 -1.83609
21.1793 20.0984 -1.78533
23.8515 22.5338 -1.75525
21.9155 20.7379 -2.02859
22.1656 22.2646 -1.68144
23.5629 22.234 -1.47722
21.6343 20.4644 -1.79819
22.5274 21.4917 -0.909164
21.8551 21.0805 -0.831566
20.8894 20.1437 -1.44092
23.309 22.3895 -0.750366
22.3492 22.2506 -1.65087
22.9462 21.9612 -0.791729
21.6964 20.6634 -1.24622
21.7634 20.5959 -1.73698
21.0055 22.0329 -0.983086
23.9119 22.694 -1.68311
21.3941 20.2793 -2.04775
20.5556 21.5594 -1.39376
23.4019 22.6427 -0.672951
23.8923 22.6009 -1.58852
22.2102 22.8396 -1.71457
21.092 20.3356 -1.32892
20.5928 21.385 -1.39923
21.688 20.5568 -1.50052
20.8547 20.0554 -1.64383
20.9988 22.0816 -1.64599
22.4241 22.0945 -0.67717
21.8749 22.1781 -1.3251
22.386 21.6877 -0.643654
23.2302 21.8526 -1.68542
22.9482 21.6799 -1.54332
21.7866 21.4054 -0.764275
21.6386 21.4517 -0.798687
21.1745 20.3325 -1.3367
22.4053 23.0321 -0.743454
23.1174 22.2309 -0.78186
20.3086 20.4076 -2.03286
22.7086 22.3443 -0.645844
20.4668 20.8684 -1.41577
23.49 22.2643 -1.1552
23.4415 22.4809 -0.740852
22.3246 21.0614 -1.93996
23.3022 21.962 -1.44479
21.8277 20.8529 -0.964348
22.5865 22.5395 -1.45111
21.3966 20.3235 -1.47733
22.4307 22.4293 -1.68246
20.3459 21.2053 -1.41247
23.4812 22.4927 -0.720383
23.1329 22.8892 -0.67915
21.3318 20.4817 -1.25114
20.8449 20.7445 -1.29616
23.4448 22.1003 -1.64207
22.8869 21.6693 -1.36599
21.9277 22.0217 -0.713799
22.5507 21.4398 -1.04602
20.5688 21.3669 -1.38121
21.078 20.0446 -1.73922
23.8177 22.6028 -1.3767
22.1223 20.8782 -1.79833
21.8366 20.6715 -2.03385
21.6067 21.7184 -0.754112
20.4878 21.5402 -1.39385
22.0584 22.6567 -1.71754
22.7897 22.4866 -0.661655
22.7738 21.5057 -1.31833
20.893 20.2499 -1.6366
20.6244 20.2009 -1.56044
22.4859 21.5971 -0.735783
22.2332 21.6913 -1.11848
22.5372 21.8404 -0.664158
21.0963 20.0865 -1.94588
21.583 21.7784 -1.77687
22.938 22.1535 -0.646332
23.3857 22.4735 -0.658813
20.748 20.9124 -1.28922
21.6835 20.6929 -1.98355
23.9305 22.7059 -1.75238
22.2508 22.6017 -1.69996
21.318 22.3731 -1.51192
20.1807 20.7895 -1.55088
20.1764 20.67 -1.67471
22.4543 21.393 -1.09456
23.0978 21.7894 -1.44349
22.2432 21.6136 -0.905064
21.6018 20.5748 -1.29102
22.431 22.8933 -0.71867
21.5578 20.4652 -1.64788
20.8654 21.0665 -1.33968
23.2107 21.9989 -1.097
20.2001 20.6996 -1.55244
22.7799 21.8867 -0.737175
22.1287 21.6846 -1.4541
21.7984 20.7536 -1.15448
21.9006 22.8425 -1.53879
21.0603 20.7093 -1.26127
23.5835 22.4962 -0.854134
23.3992 22.6962 -0.686108
21.7452 20.6066 -1.97997
22.8668 21.639 -1.32922
21.5872 22.1952 -0.754929
20.6439 21.4306 -1.31218
22.4008 21.6805 -0.672447
21.1289 20.1468 -1.51283
22.0911 22.4816 -0.710358
21.2479 20.3498 -1.29756
22.4485 21.2012 -1.48911
21.0228 21.9864 -1.06448
20.7624 20.8163 -1.31216
21.3404 20.6368 -1.26473
22.9952 22.1573 -0.897915
22.7945 21.4972 -1.69487
22.4401 21.214 -1.31359
22.4283 21.1668 -1.91198
21.5036 21.9826 -0.763062
20.7097 20.0529 -1.89209
22.4716 21.2188 -1.87034
23.1771 22.1147 -0.857002
22.0869 22.4241 -1.68474
21.6012 21.0135 -1.0945
22.0565 20.8298 -1.69025
22.8253 21.5013 -1.59114
19.9722 21.0278 -1.75938
23.3339 22.7686 -0.669632
21.5728 21.5042 -0.926628
23.1478 21.9131 -1.19297
20.768 21.8828 -1.27487
20.5439 20.8619 -1.39818
21.7254 20.6291 -1.867
22.4997 21.4483 -0.990604
21.6984 20.6687 -1.86832
21.4316 20.259 -2.02698
21.5761 22.5068 -0.799995
23.8176 22.5203 -1.56857
23.359 22.5644 -0.63221
22.0485 22.5838 -0.736099
23.877 22.5299 -1.60007
22.5386 21.6904 -0.695427
22.2706 21.6995 -1.02759
22.104 22.5375 -0.722462
23.1946 21.9987 -1.14445
21.085 20.0848 -1.65292
21.4327 20.507 -1.21149
20.4021 20.8982 -1.43068
21.853 20.707 -1.3996
22.3769 22.7535 -1.61249
21.0804 20.0584 -1.79392
20.7743 20.4482 -1.38596
21.2808 21.8824 -0.857735
22.7635 21.8354 -0.782539
22.6555 23.1614 -0.740578
21.7132 20.5723 -2.03928
22.6455 21.3879 -1.39342
21.8451 20.9861 -0.97699
22.1035 20.8682 -1.78603
23.2001 21.9101 -1.28472
22.2418 22.9306 -0.756126
20.9572 20.0134 -1.88051
21.7541 20.7208 -1.27318
22.6428 21.3434 -1.75384
22.9334 22.3999 -0.649509
23.5338 22.0634 -2.09472
22.1547 20.951 -1.8784
21.084 22.0782 -0.941681
21.99 21.7364 -0.685669
20.894 20.1269 -1.59927
20.6431 20.2025 -1.58784
23.0919 22.1384 -2.18364
22.5077 21.2786 -1.65456
20.8441 21.8536 -1.14932
20.6341 20.8916 -1.34948
22.1892 20.9521 -1.75319
22.1168 20.9851 -1.32094
22.3976 21.1572 -1.84287
23.4983 22.4934 -0.787968
21.8128 20.9721 -0.922634
23.1186 22.0683 -2.04594
23.4519 23.3614 -1.74768
22.8997 22.0277 -0.685966
23.0779 22.3075 -0.615372
22.5157 22.622 -1.48209
21.9593 20.7877 -1.58934
23.4954 22.65 -0.690727
23.4343 22.0957 -1.60811
23.1954 22.108 -1.12862
22.1748 21.7834 -1.13592
23.5772 22.2335 -1.80267
22.4851 21.3902 -1.14453
22.6675 22.558 -1.08125
23.258 22.6342 -0.65358
21.7888 20.6166 -1.93147
23.4331 22.1645 -1.25688
23.389 22.0766 -1.40081
21.5437 22.077 -0.753036
23.6965 22.7774 -1.01601
20.5548 20.1425 -1.68962
22.0428 21.7587 -1.42452
22.1 20.8656 -1.64217
22.4496 22.1662 -0.662113
23.4366 22.4542 -0.748055
22.1491 20.9441 -1.4463
22.8027 21.5209 -1.34236
21.7953 20.747 -1.20201
20.3107 20.5372 -1.54488
22.1347 20.9222 -1.56857
22.4996 21.2849 -1.34615
21.6163 22.6639 -1.59032
22.2517 21.5563 -1.30545
22.4853 21.3133 -1.20333
22.6558 21.8236 -0.676029
20.4253 20.3415 -1.67755
23.2919 22.1856 -1.04518
23.2143 22.5063 -0.639519
23.3134 22.2054 -1.144
23.0806 21.773 -1.40005
22.2497 22.8112 -1.71493
20.5385 20.6054 -1.43323
21.5005 20.3024 -2.14236
23.2413 22.2761 -0.751236
22.1861 21.976 -0.671368
23.4986 22.2257 -1.59023
22.5323 23.2122 -0.744221
22.2825 22.8835 -0.740395
21.0747 21.9768 -0.966972
23.068 22.0355 -1.14462
22.4748 21.592 -0.794167
21.4893 20.3114 -2.04226
23.7187 22.7688 -1.03485
21.9968 20.8205 -2.00422
21.414 20.3761 -1.62244
21.8974 20.7375 -1.14811
21.6077 20.4718 -1.59314
22.7534 21.4417 -1.65035
21.9999 21.1773 -0.834209
22.399 22.918 -0.732067
22.4093 22.3479 -0.657028
23.6553 22.9457 -1.10552
22.304 21.0471 -1.89398
23.3404 22.1854 -1.14861
22.0954 21.7858 -1.34243
21.0405 20.0432 -1.70316
21.5528 22.4379 -0.764332
21.6067 20.5159 -1.40133
23.0014 22.542 -0.661549
22.3943 22.2355 -0.663612
20.9645 20.4371 -1.313
21.8885 21.217 -0.769016
22.1042 21.3081 -0.726433
20.3745 20.4709 -1.56035
20.7299 20.2503 -1.6547
21.5922 20.4366 -2.00466
21.0526 22.0259 -1.03629
22.5473 21.291 -1.74753
21.4577 20.4196 -1.6488
22.4494 23.0376 -0.744408
22.3247 21.1155 -1.40818
22.2093 21.0393 -1.48118
22.5721 22.7223 -0.692616
23.3587 22.384 -0.792744
21.8317 20.8457 -1.05032
21.5488 20.51 -2.07371
21.544 20.3984 -1.65259
20.9911 20.7935 -1.26464
21.2568 20.1468 -1.87769
23.0634 23.0855 -0.727497
22.2212 21.7246 -0.661633
20.7526 20.4416 -1.38148
22.9826 21.7991 -1.11781
23.4077 22.1879 -1.24725
21.8878 20.6912 -1.94821
22.2525 22.9018 -1.5781
21.9211 20.7213 -1.15518
22.139 21.825 -0.679363
22.1772 20.9559 -1.5
22.4277 21.5556 -0.710758
23.6732 22.4305 -1.20907
23.1338 22.7495 -0.678188
20.3962 20.5446 -1.5079
23.4753 23.2968 -1.58964
21.4026 20.2678 -1.96343
21.7892 21.6146 -0.733387
22.708 22.5053 -1.08082
23.337 21.96 -1.50066
23.2199 22.681 -0.673737
21.741 22.5041 -0.753777
21.7824 21.7465 -0.709244
21.5407 20.4054 -1.49585
22.7867 21.4789 -1.93077
20.3606 20.74 -1.45563
22.4261 22.3123 -1.65905
23.7121 22.4307 -1.28623
23.5766 22.2917 -1.26604
20.8044 21.875 -1.11524
23.1977 22.155 -0.846996
22.0382 21.0192 -1.21172
22.3127 23.0106 -0.710205
21.6393 20.6313 -1.24685
21.4078 22.1709 -1.6751
23.8506 22.8244 -1.68098
23.7043 22.4251 -1.38735
23.7018 22.8323 -1.09212
21.6895 20.4976 -1.84784
20.9012 20.4055 -1.35238
22.505 21.7942 -0.61636
23.4668 22.0984 -1.81224
23.0373 21.9062 -1.00121
20.693 20.2263 -1.58883
20.4229 20.6406 -1.49073
22.3913 22.7672 -1.46067
21.4869 21.852 -0.78788
20.6987 21.8052 -1.20574
23.2997 22.1296 -2.01523
22.5548 22.5514 -1.4968
23.5444 22.1649 -2.06558
20.8842 20.0133 -1.94791
20.8413 20.1412 -1.5547
20.5423 21.5996 -1.34053
21.7804 22.7546 -1.74272
22.2716 21.0165 -1.64611
21.3745 22.3596 -1.37904
23.3682 22.3733 -1.14847
22.2602 22.7622 -1.71571
21.8748 22.6897 -1.72665
22.4555 23.0012 -0.737522
23.4486 22.1058 -1.70135
23.5621 22.5774 -0.782543
23.1349 22.3753 -0.649757
22.7887 21.8429 -0.839249
22.8457 21.9353 -0.738815
23.824 22.7263 -1.22073
21.6864 20.6822 -1.86537
22.4456 21.2296 -1.49751
23.2837 23.0682 -0.735771
21.5969 20.4801 -1.69637
20.7895 21.8672 -1.28611
21.9473 20.7515 -1.54956
23.18 22.354 -0.660019
22.4236 22.0807 -0.662025
23.0892 22.6872 -0.681732
21.0686 22.06 -1.70047
23.3795 22.024 -1.46547
22.6379 21.3387 -1.44915
23.8003 22.6175 -1.05843
23.267 21.9688 -2.09464
21.0221 22.0735 -1.66624
21.9496 21.7541 -0.705101
23.4514 22.8028 -0.699596
22.9181 22.2315 -0.930885
23.3792 22.5336 -0.619961
22.0968 22.4092 -1.66088
22.5941 23.2436 -0.719299
21.6027 22.1592 -0.75034
21.4289 22.4359 -1.51126
21.8992 21.7183 -1.58887
21.5885 20.4475 -1.65429
22.932 23.2504 -0.747478
23.7946 22.6741 -1.28241
23.7727 22.6051 -1.10111
23.2868 21.9213 -2.00459
20.6107 20.2063 -1.5505
20.1033 20.602 -1.81133
23.0025 22.1708 -0.984329
20.7482 20.1434 -1.60864
22.5928 22.3537 -0.662643
21.5363 22.1592 -1.76579
21.5932 20.5287 -1.34446
22.469 22.719 -1.34396
22.4753 22.6872 -1.31506
22.6968 21.9714 -0.616905
22.3017 21.0805 -1.60112
22.9004 21.9995 -0.688404
23.7607 22.4278 -1.57996
21.8899 20.7107 -1.82442
20.6427 21.4298 -1.328
21.3588 20.2501 -1.67517
22.5786 21.2989 -1.4958
22.1939 22.4795 -1.67007
21.8269 20.7502 -1.26133
22.8447 22.695 -0.682449
22.6402 21.9371 -0.646465
23.5769 22.2265 -1.61875
23.057 22.1048 -0.729362
22.9408 21.7058 -1.19399
20.7242 20.0852 -1.97985
21.8853 20.6986 -1.64245
23.7991 22.8442 -1.64777
21.812 20.7114 -1.34283
21.6504 22.5378 -0.780029
21.2126 22.2467 -1.65852
22.994 22.175 -0.946159
21.5009 21.917 -1.70489
23.2474 21.9387 -1.3469
22.3288 21.5603 -1.11097
23.8232 22.7812 -1.42612
20.44 20.2476 -1.77376
21.3385 20.2388 -1.60007
23.0961 21.7636 -1.72762
23.6995 22.5849 -0.988361
20.7893 20.0303 -1.68788
22.4927 22.5956 -1.41708
21.5649 21.8871 -0.75209
22.6918 21.5211 -2.07645
23.238 21.9723 -2.01517
20.463 21.4524 -1.36083
23.1276 21.802 -1.8485
22.288 21.0547 -1.50292
21.4693 22.0299 -0.772022
21.9122 22.8858 -1.61892
22.2642 21.11 -1.20443
20.1963 20.5064 -1.77616
23.2661 22.0214 -1.24527
21.1259 22.1909 -1.69365
23.1766 22.2604 -0.692772
22.9111 21.6768 -1.29322
22.5817 21.383 -1.26046
22.7139 21.4245 -1.8811
20.9915 20.9334 -1.27825
23.0945 23.1053 -0.725014
22.1117 21.044 -1.20221
20.5479 20.6974 -1.3989
22.2692 22.6336 -0.706844
23.8092 22.7109 -1.13585
21.5782 21.0696 -1.1224
23.8108 22.9616 -1.77123
20.2373 20.4829 -2.0052
23.0135 21.7213 -1.64672
22.4314 21.6462 -0.836483
21.3977 20.256 -1.89602
20.7588 20.2775 -1.55975
22.4969 22.7368 -0.695198
22.4371 21.698 -0.598473
23.4218 23.3809 -1.75542
23.2851 22.7241 -0.665607
20.9699 20.2983 -1.37077
22.8034 22.0975 -0.614563
23.5292 22.1678 -1.43531
21.3814 20.2794 -1.96025
23.622 22.5732 -0.865055
21.0029 20.1602 -1.38826
22.6744 21.366 -1.6646
22.4001 21.1786 -1.84851
23.0455 22.2548 -0.65897
20.586 20.1377 -1.67862
22.2442 22.9962 -0.747971
23.5326 22.1517 -1.64285
21.3985 20.231 -2.1398
21.5824 20.4933 -1.44872
21.4875 21.9444 -1.69472
22.8042 21.9303 -0.687523
21.3759 20.2605 -1.80539
22.0601 21.7651 -0.684761
22.3428 22.0515 -0.677628
20.1482 20.8277 -1.56374
22.2076 21.9513 -0.665707
22.463 21.8081 -0.672523
21.6436 21.9793 -0.755238
22.3401 22.3614 -1.67571
23.5195 22.1672 -1.41051
23.3558 22.1238 -1.19873
23.2553 21.9952 -2.14345
21.2754 20.2474 -1.41205
23.2672 22.2057 -1.04585
21.1082 22.0635 -0.961334
23.659 22.226 -2.0458
20.8341 21.8936 -1.33379
23.5788 23.1076 -1.19705
23.4047 22.0362 -1.84301
20.5734 20.1738 -1.67801
22.7582 21.5319 -1.28618
21.8026 20.7944 -1.14138
22.1626 20.954 -1.48605
20.8533 21.8769 -1.20224
21.8252 21.2478 -0.769234
23.2879 22.3831 -0.699829
23.6746 23.1212 -1.7146
23.3125 22.0217 -1.39095
22.6527 21.7207 -0.723602
21.5253 20.4416 -1.84519
20.9951 20.357 -1.3171
22.0485 20.8493 -1.49211
23.4435 22.0016 -2.14874
23.594 22.3499 -1.19693
23.4546 22.739 -0.68663
21.5261 22.2792 -0.785809
23.0097 22.9048 -0.685417
22.5013 23.2058 -0.766205
20.3229 20.4247 -1.68452
22.7584 22.495 -0.661591
20.0974 20.5651 -1.90328
22.1744 21.1278 -1.22445
23.155 22.2069 -0.74976
23.8176 22.6542 -1.2445
22.1091 20.8781 -1.95422
22.5411 21.4404 -1.14458
23.0911 22.8411 -0.67823
20.5145 21.0374 -1.36677
20.4649 21.0939 -1.36862
23.5765 22.2813 -2.00494
23.6758 22.5807 -0.950596
21.7233 21.4822 -0.757084
22.9678 21.8447 -1.14498
21.6068 22.1052 -0.77541
21.8398 20.8862 -0.998894
21.2467 20.5466 -1.23462
21.6415 20.7361 -1.05073
21.8136 21.2656 -0.767471
22.9893 21.6987 -1.64621
21.4094 20.6044 -1.21848
23.1751 22.7115 -0.673122
22.195 22.4958 -0.697437
20.494 21.6336 -1.35158
22.6292 21.761 -0.698387
23.1716 21.8435 -1.44589
23.4891 22.1292 -1.45241
23.827 22.6952 -1.20077
22.3969 21.4507 -0.947197
21.4123 20.4414 -1.32788
22.436 21.5948 -0.700062
22.8958 22.6396 -0.67725
21.6703 20.5028 -1.74334
21.6191 20.4533 -1.88606
22.1962 22.8355 -0.741276
20.4553 20.295 -1.64632
21.3464 20.2004 -1.9899
20.5887 21.2372 -1.33732
22.4027 22.8335 -1.34709
20.8067 21.7617 -1.18303
22.5415 21.6567 -0.689095
21.3581 20.2755 -2.00238
20.8233 21.923 -1.31771
21.8711 22.8835 -1.71572
23.3632 22.018 -1.4413
21.5263 20.3651 -1.94801
20.4443 20.4893 -1.4972
21.2897 20.2598 -1.7265
20.3617 20.4013 -1.64403
22.8276 22.2518 -0.645222
22.3394 21.1183 -1.297
21.0601 21.9832 -0.961964
23.1678 21.9715 -1.17826
23.585 22.2317 -1.45048
23.8005 22.5781 -1.19405
20.8701 20.5778 -1.34006
23.43 23.2771 -1.174
20.9467 20.739 -1.26924
23.7553 22.5789 -1.08887
22.2499 21.0858 -1.29547
20.7892 20.5478 -1.35704
22.0068 20.9131 -1.24636
20.7097 20.2914 -1.60072
21.2949 20.1452 -1.94341
22.0735 21.261 -0.699558
20.2599 20.6039 -1.541
23.492 22.151 -1.59841
21.8614 20.7435 -1.14512
20.8626 20.1686 -1.47528
22.8769 21.6369 -1.19714
21.9814 22.6344 -0.742645
20.133 20.641 -1.73544
23.4823 22.234 -1.25127
20.7979 21.8386 -1.18978
21.7032 22.2943 -1.51344
21.5468 20.4804 -2.04394
21.4486 20.3913 -1.63669
23.8887 22.6985 -1.66101
21.0902 22.1731 -1.70336
23.8816 22.5891 -1.51208
22.4246 22.287 -0.670879
21.5375 20.5909 -1.1995
22.9941 21.9634 -0.850147
22.3632 21.5107 -0.830894
23.8494 22.9077 -1.72813
21.1281 20.6843 -1.24204
23.2521 21.9651 -1.76779
21.6307 20.4301 -2.04686
21.9205 22.8333 -1.55368
22.8503 21.9757 -0.688629
23.6907 23.1115 -1.71193
22.9972 22.4474 -0.652916
21.5045 20.6935 -1.16724
23.0777 22.162 -1.12064
22.7505 21.7847 -0.834934
21.5602 21.9956 -1.70552
23.8008 22.7719 -1.35272
23.7997 22.7443 -1.24377
21.9225 22.7849 -1.72495
22.7419 21.9428 -0.648666
22.8466 21.9643 -0.696877
22.5995 21.309 -1.64468
20.5965 20.8015 -1.38913
23.605 22.2505 -1.97662
23.0368 22.1587 -1.00137
23.7598 22.4797 -1.54974
22.0963 21.7986 -1.20546
21.035 22.1703 -1.60096
22.8417 21.6878 -1.18419
21.9309 21.046 -0.879654
22.6082 21.3271 -1.94443
21.6044 20.529 -1.38638
20.5057 21.3737 -1.30816
21.7561 22.4484 -0.755463
21.0283 20.0867 -2.03313
23.609 22.3409 -1.33619
21.3356 22.2762 -1.64554
20.3585 20.3257 -1.71146
23.8198 22.47 -1.61943
21.3789 20.2055 -2.05009
22.8445 22.2894 -1.19546
22.4275 21.1669 -1.72256
21.8451 22.8063 -1.65878
22.949 22.0232 -0.743332
21.9806 22.7678 -0.766548
22.9345 21.6454 -1.45472
22.2828 22.3888 -0.685322
21.9836 21.3831 -0.713039
23.4912 22.5026 -0.740585
20.5297 20.3848 -1.52185
21.006 20.5031 -1.294
23.6846 22.5635 -0.964638
23.5864 22.6249 -0.749485
22.7445 21.4326 -1.6946
20.5515 20.9987 -1.3648
21.3416 20.2763 -1.48492
22.1722 22.3739 -1.68938
22.1479 22.3944 -0.699074
23.3993 22.0323 -1.93023
20.7306 21.0579 -1.32388
22.2298 21.4459 -0.664288
23.6295 22.4807 -1.05769
23.1446 22.1343 -0.838497
22.9795 22.1765 -0.685139
21.1527 20.214 -1.34202
21.4267 20.3043 -1.72543
20.5488 20.9408 -1.36501
22.9818 22.1125 -1.04011
22.6375 22.4466 -1.51753
22.1089 21.2749 -0.846119
21.5812 21.5489 -0.800724
22.6364 21.8421 -0.655525
23.3581 21.9568 -1.52897
21.9921 21.947 -0.695286
22.023 22.6719 -0.730907
23.0288 21.7745 -1.29941
21.1488 20.4563 -1.2648
21.3492 20.2773 -1.95957
22.2429 22.9871 -1.44497
21.3054 21.9933 -0.833977
23.0765 21.7542 -1.51747
22.596 21.3282 -1.39574
22.7469 22.0415 -0.647572
23.7198 22.5623 -1.0153
23.3491 21.9913 -1.84345
23.5922 22.3109 -1.29865
22.4893 21.2019 -1.58965
20.341 21.1401 -1.437
22.2895 21.0368 -1.69726
21.253 20.2762 -1.38338
20.6934 20.5487 -1.38422
23.0813 22.1679 -0.713947
21.9899 20.782 -1.60008
20.676 21.382 -1.30499
21.2964 20.4065 -1.26094
23.4471 22.2344 -1.19873
21.7078 22.3249 -1.45528
23.8995 22.6136 -1.6462
21.8148 20.645 -1.74329
21.4456 21.8448 -1.69264
22.4328 21.6331 -1.04359
21.8072 21.8519 -0.702457
22.407 21.6537 -0.651031
23.2406 21.9087 -1.44912
23.884 22.5643 -1.83634
23.1986 23.1299 -0.736134
21.3565 20.2147 -2.10284
21.6498 20.6867 -1.14378
23.6504 22.5268 -0.999588
22.297 21.4407 -1.23272
21.3728 20.3175 -1.44061
22.2808 22.1899 -1.66217
21.3003 22.1151 -0.837639
22.2962 21.8398 -0.671448
22.9448 21.6513 -1.54432
20.7415 20.0503 -1.96481
23.8668 22.5754 -1.84366
20.8502 20.5951 -1.33202
23.5116 22.5897 -0.728157
22.3164 22.8527 -0.734615
20.467 21.2877 -1.38807
21.0023 20.0374 -1.68586
21.8014 22.13 -0.722633
22.9036 21.5616 -1.84954
22.3079 22.4327 -0.687153
21.5745 22.0328 -1.71476
21.7786 20.5982 -1.64652
21.6356 20.74 -1.98113
21.1906 20.1811 -1.99184
23.3614 21.9755 -1.53809
20.3217 20.5208 -1.54382
20.6908 20.2316 -1.48454
21.936 20.7146 -1.59523
21.8435 21.4037 -0.749451
22.6978 21.4315 -1.34928
23.8371 22.5887 -1.29734
20.2203 21.2033 -1.46024
21.6848 20.6723 -1.21681
20.2159 20.6518 -1.60735
20.3011 20.6888 -1.50425
23.3529 22.0362 -1.90301
22.3274 22.627 -0.701942
23.0223 22.1169 -0.651917
20.3462 20.3527 -2.0367
23.4434 22.1474 -1.59368
21.5728 21.8917 -0.750648
23.6372 22.6259 -0.807644
23.843 22.5314 -1.92126
23.6368 23.1049 -1.58578
20.8582 20.135 -1.58356
21.5445 21.1411 -1.15202
22.9723 22.009 -0.715805
23.4243 22.0698 -1.90871
23.7726 22.8152 -1.63045
21.0911 20.8224 -1.25286
20.0945 20.8921 -1.58448
20.9439 20.1927 -1.40173
22.0566 20.8322 -1.74079
22.9988 22.6329 -0.658852
22.3356 21.0696 -1.96164
20.6998 20.8617 -1.32925
21.8844 20.752 -1.30375
22.7918 21.5303 -1.80059
22.533 22.4473 -1.67143
20.7871 20.891 -1.29444
20.656 20.4455 -1.41613
23.7769 22.6078 -1.00091
23.071 22.9768 -0.694798
21.4927 22.3026 -0.789204
21.5499 20.3844 -2.05405
22.9401 21.7682 -1.1134
22.7533 21.4745 -1.39441
23.2778 21.95 -1.31302
23.2102 21.8575 -1.94006
20.352 20.9467 -1.40895
21.6832 22.0398 -0.733025
21.0621 22.1668 -1.6348
21.3925 20.5948 -1.24974
21.0165 20.0681 -1.55782
23.2002 22.2867 -0.740532
22.1331 21.7249 -0.6782
22.1814 21.7635 -0.667477
23.0038 22.1825 -0.722836
21.5605 20.848 -1.14955
20.2994 20.3648 -1.77576
22.1325 21.7423 -1.34357
23.5735 22.196 -1.65788
21.1465 20.0899 -1.79662
23.6099 22.6115 -0.749649
23.0422 23.0889 -0.712906
22.6625 22.4018 -1.51394
23.4299 22.0783 -1.4639
22.9061 23.2413 -0.736458
23.3871 22.4316 -0.745865
22.7312 22.4499 -1.21835
20.5914 20.4377 -1.4543
22.6386 21.4364 -1.25064
22.8815 21.8278 -1.1688
21.682 21.8257 -1.77223
23.3556 23.4163 -1.43522
22.1414 22.3849 -1.66821
21.9431 20.7537 -1.98479
21.8149 22.6901 -0.783207
23.3707 22.0141 -1.77056
21.6511 21.049 -1.05346
22.6434 21.3486 -1.59304
22.5551 21.2631 -1.93063
23.0999 21.7938 -1.59344
22.0732 22.6598 -0.724236
22.4478 21.2022 -1.85539
23.1814 21.8137 -1.73941
21.7651 20.8991 -0.907242
23.7047 23.1118 -1.74076
22.3498 22.993 -0.743977
22.3327 22.8312 -1.62062
22.621 21.319 -1.41994
21.5004 21.7944 -1.68056
22.2413 21.8096 -0.663227
23.7394 22.4832 -1.23975
22.4619 21.5684 -0.881454
20.0928 21.0887 -1.55574
21.6293 22.2882 -0.746643
21.6156 20.4241 -2.04734
22.5357 21.4536 -1.00058
20.8095 20.2245 -1.47449
22.2719 21.0825 -1.31396
22.3077 22.9398 -1.38161
22.2601 21.0748 -1.43465
21.6487 21.7199 -0.75193
22.4194 21.1777 -1.42918
23.4475 22.4826 -0.7845
20.4101 20.2874 -2.0624
21.096 20.0579 -1.84118
21.7105 20.7646 -1.00271
23.6904 22.8235 -1.04545
21.7433 22.2296 -1.57738
21.3668 20.232 -1.82411
23.035 23.1896 -0.744804
23.4119 23.3108 -1.23661
20.3844 20.9373 -1.43929
21.44 20.2962 -2.14035
22.2155 21.3427 -0.791325
21.3334 20.187 -1.71486
21.5495 20.6449 -1.15013
21.1619 20.2376 -1.93407
20.779 20.0339 -1.99223
22.7059 21.3993 -1.63741
20.789 20.3475 -1.44149
22.0981 21.2527 -0.792049
20.793 21.8892 -1.29428
20.3029 21.362 -1.44211
21.3662 21.7608 -0.821339
21.1907 22.1893 -1.5728
23.0465 21.9055 -1.04187
20.4799 20.7503 -1.42461
23.1554 22.4893 -0.682709
21.4095 21.9661 -0.790554
22.8543 21.6339 -1.29863
21.2577 22.0783 -1.72478
22.2048 21.4588 -0.683735
23.7683 22.5697 -1.12776
21.7203 20.5306 -1.99619
21.9397 21.3171 -0.718384
23.2919 22.3733 -1.09886
21.3103 22.2384 -0.800896
22.3557 21.1327 -1.73824
21.9821 21.8056 -1.39719
22.0965 22.5451 -1.68794
21.2523 20.615 -1.22353
23.1065 22.1511 -1.09021
21.3508 22.041 -0.803116
20.907 20.1907 -1.38312
22.796 21.8951 -0.684952
22.2129 22.9441 -1.67506
21.9393 20.736 -1.69321
23.7285 22.4429 -1.30563
21.2064 20.1629 -1.84316
21.521 20.3676 -1.91075
21.84 20.8974 -1.04248
23.3454 21.9542 -1.99323
20.6752 20.0897 -1.92042
21.5325 20.5379 -1.24853
23.0943 21.7872 -1.70432
20.9812 20.1235 -2.11238
21.9523 22.2046 -0.713585
22.5419 22.0993 -0.659561
22.5958 21.798 -0.661884
22.337 22.9028 -1.37846
21.3919 20.3741 -1.37906
23.7466 22.7182 -1.37235
23.8454 22.5325 -1.50416
20.8104 20.1104 -1.64954
23.0939 21.7769 -1.84412
21.7377 20.715 -1.20737
21.889 22.4323 -0.718063
20.6361 21.5364 -1.30747
23.5555 22.2581 -1.62429
23.8506 22.7361 -1.6473
22.6535 21.3841 -1.4396
23.3416 22.1758 -1.10709
23.0026 22.83 -0.674671
22.9045 21.6405 -1.50174
22.6815 21.8051 -0.703388
20.8985 20.7817 -1.27021
21.8879 22.0421 -0.703995
22.3487 21.7203 -0.933681
23.3335 21.9715 -2.16046
22.7315 22.2013 -0.64571
23.6205 22.5769 -1.83502
21.0439 20.0627 -1.99064
22.7071 21.5468 -1.15736
22.9936 22.0616 -0.702744
20.7399 20.5316 -1.36331
21.9103 20.735 -1.59507
23.0484 21.9366 -1.09039
21.2123 22.0077 -0.872746
20.293 20.5584 -1.57572
21.8831 20.9891 -0.885986
23.916 22.7116 -1.74202
22.8844 21.6435 -1.30396
22.2416 22.5593 -1.68818
23.495 22.5323 -0.739956
22.4403 21.9072 -0.661228
22.0144 22.178 -1.20888
22.0114 22.4691 -1.68349
22.6531 21.3931 -1.99439
22.1923 20.9561 -1.53371
22.9857 21.658 -1.70128
21.348 20.555 -1.21224
22.3111 21.1419 -1.32894
20.4917 20.3551 -1.54746
21.9767 20.7612 -1.96112
22.4386 21.179 -1.70191
22.3195 22.89 -1.4657
22.251 21.9076 -0.663197
21.8506 22.6291 -0.718029
21.4799 22.2021 -1.7743
20.4536 20.2411 -1.6975
20.7799 21.1742 -1.32866
22.6943 21.3999 -1.89169
21.9816 20.7622 -1.63649
23.3361 22.6765 -0.647236
20.6886 20.3925 -1.41638
23.8151 22.4989 -1.48002
22.3126 21.1751 -1.22732
21.2884 20.1385 -2.04933
22.2348 20.985 -1.7427
21.3066 22.0421 -1.7109
23.2825 22.0546 -1.20436
23.0818 22.07 -1.90527
23.2451 22.6349 -0.673973
20.6852 20.1289 -1.64733
20.6572 21.176 -1.31285
21.7707 20.8153 -1.00861
22.8346 23.1502 -0.736004
21.5101 22.1783 -1.76763
20.992 20.0332 -1.94089
21.4128 21.9918 -1.72059
21.34 20.2008 -1.9002
22.0523 21.209 -0.793873
22.9461 21.9854 -0.802521
23.1904 22.8297 -0.676876
22.9508 22.5791 -0.670662
21.1582 22.277 -1.74645
21.5397 22.2831 -1.76361
22.2224 21.5227 -0.658051
22.7977 21.4644 -1.87572
21.7794 20.6551 -1.35459
23.1311 22.1226 -1.06051
21.0866 22.0246 -1.00076
23.1437 21.8084 -1.6583
23.0569 21.8009 -2.04123
22.3035 21.5937 -0.644562
21.8098 22.0889 -0.731972
23.1979 22.108 -1.04462
23.1973 22.0986 -1.09698
20.1969 20.7542 -1.54403
23.0667 23.1272 -0.725155
22.9325 22.3621 -0.647804
22.4737 22.4222 -0.670059
20.3565 20.8414 -1.47545
21.0783 22.1237 -1.55915
22.9738 21.6464 -1.59824
21.3626 20.5527 -1.23383
22.1165 21.0252 -1.22124
22.0078 21.7927 -0.694603
20.4412 20.2306 -1.89753
21.8875 20.9548 -0.901627
21.7578 20.6348 -1.48272
22.987 21.7351 -1.3489
23.228 21.8961 -1.54512
21.5937 20.5413 -1.69654
21.6456 20.6298 -1.81544
21.5406 21.5358 -0.90897
21.5569 21.5419 -0.935547
23.792 22.728 -1.50346
21.1943 20.1083 -1.63831
22.3415 22.3371 -0.68082
23.0741 22.1737 -1.05222
22.0367 20.947 -1.20984
21.5887 22.1981 -1.75284
21.6687 20.7479 -1.16276
22.1331 20.9461 -1.34454
21.4471 20.2555 -2.14892
21.4999 20.4657 -1.31994
22.5065 21.461 -1.13338
23.4794 22.1881 -1.35623
23.7028 22.2781 -1.8936
22.491 22.0426 -0.659554
21.6881 20.7857 -1.02857
22.9649 22.754 -0.669735
20.509 21.3964 -1.3454
21.9074 20.746 -1.09692
23.4261 22.1681 -1.21281
21.4942 20.5045 -1.25229
22.9632 21.6514 -1.72829
22.1973 20.9749 -1.55609
22.4062 22.2841 -1.65423
22.5986 21.5263 -1.15489
22.3382 22.1493 -0.675659
22.9228 22.2112 -1.27447
23.1992 22.3397 -0.681618
23.3503 22.068 -1.97784
21.3501 20.282 -1.67308
23.0334 22.6222 -0.686058
21.7831 22.2509 -1.47216
21.8555 20.8634 -1.14327
22.5662 21.4403 -1.18581
22.6567 22.4521 -1.46888
23.7811 22.4632 -1.39742
22.4156 21.1591 -1.88188
23.1367 21.9785 -1.11168
22.3413 22.2412 -0.670013
22.3472 21.4897 -0.741627
21.307 20.4977 -1.22929
21.8106 20.6072 -1.85015
21.1886 20.1321 -1.7447
22.2653 23.0526 -0.771748
22.2969 21.0498 -1.79293
20.4991 20.1595 -1.76083
22.1601 20.9297 -1.74324
20.5976 20.0953 -1.79508
23.143 21.8472 -1.544
23.0825 22.3265 -0.661015
21.7058 20.8075 -0.969799
20.797 20.3109 -1.40006
21.3847 22.4134 -1.4365
22.6539 22.5056 -1.34848
22.2963 22.8651 -1.60291
22.6305 22.4785 -1.46504
22.8997 21.5853 -1.49619
22.6473 21.7961 -0.690617
23.6755 22.3411 -1.75676
23.2552 22.1089 -1.0456
23.1434 22.3524 -0.647198
20.9471 22.0192 -1.00892
22.6222 23.1736 -0.73785
23.5697 23.0991 -1.15896
23.578 22.1099 -2.1494
21.1363 20.1357 -2.04519
21.9073 20.7345 -1.83966
22.67 21.3638 -1.90418
21.5536 20.6353 -1.17309
23.8309 22.6473 -1.19287
21.4075 22.4467 -1.6908
23.721 22.806 -1.03649
23.3927 22.0895 -1.80133
22.3751 21.7325 -1.00864
21.3547 20.3745 -1.3321
22.4488 21.4459 -0.891285
23.1465 22.1151 -0.983982
23.4836 22.4112 -1.0629
22.9418 22.0429 -0.697136
21.7565 20.8084 -0.958366
21.9884 22.5934 -1.68814
21.9964 20.9947 -2.16821
22.3539 23.0712 -0.718494
21.9917 22.4798 -1.67617
20.3993 21.3931 -1.4084
21.4803 20.3144 -1.99235
20.4399 20.3968 -1.5552
23.0135 22.0682 -0.761219
22.346 21.4526 -0.736107
22.8449 21.9659 -0.666943
22.4156 21.1727 -1.90787
21.3474 20.2203 -2.01489
22.0805 21.4797 -0.682289
20.4378 20.3412 -1.64176
22.1873 21.7864 -0.683479
21.6792 20.4606 -2.13083
21.226 20.1618 -1.86492
22.5441 22.6255 -1.37083
23.4202 22.0253 -2.00959
20.8923 20.2411 -1.45108
22.6354 22.4995 -1.39656
20.4057 21.2032 -1.40413
20.9522 20.8455 -1.26712
22.0388 20.7007 -1.09608
21.0247 20.7793 -1.26738
21.849 20.6487 -1.7446
21.307 20.1929 -1.82849
23.2856 21.903 -1.46904
23.79 22.4901 -1.39672
23.6751 22.3546 -1.42043
21.053 20.6404 -1.24063
22.1051 22.0862 -0.68631
22.6991 22.4952 -0.664108
20.7567 20.5049 -1.42898
21.9427 21.2451 -0.753193
22.4465 21.4922 -0.844986
22.2715 21.3969 -0.737038
22.3532 21.5483 -0.988884
20.7449 21.0354 -1.30607
23.5219 23.1337 -1.18514
21.1497 20.1237 -1.60316
20.7983 20.2409 -1.44976
20.9481 20.8771 -1.27969
20.9184 21.0124 -1.29366
23.8043 22.528 -1.20482
23.4469 22.4996 -0.696571
22.458 21.5412 -0.85239
20.6602 21.2986 -1.35023
20.5275 21.2713 -1.33991
22.2427 22.6893 -1.71202
23.218 21.98 -2.01635
22.2044 21.6476 -1.3469
20.8961 20.9094 -1.26708
22.9367 21.7804 -1.15388
23.5499 22.1357 -2.1009
21.6473 20.4881 -1.74668
22.2653 22.3539 -0.686668
21.9557 22.6596 -0.74622
21.9474 20.7439 -1.74315
21.6925 20.7934 -1.00237
22.26 21.6594 -1.12141
21.9031 21.0386 -0.886757
20.803 21.1316 -1.31886
23.443 22.0599 -1.89825
23.8034 22.4547 -1.54408
22.2967 21.0602 -1.54454
22.4558 21.22 -1.77948
22.4367 21.7359 -0.654785
21.4921 22.1736 -0.792221
22.2932 21.441 -0.737442
23.5014 22.5 -0.894608
23.2915 22.4514 -0.663502
20.7741 20.2259 -1.53688
23.0058 22.1429 -0.688591
23.8339 22.916 -1.71801
21.3266 22.2351 -1.59554
21.8966 21.5326 -0.717178
20.7352 21.2432 -1.33769
20.2583 20.697 -1.5304
23.7024 22.3436 -1.83583
22.9816 21.9607 -0.812744
20.9601 20.0188 -1.73762
22.7547 21.5143 -2.03032
23.6131 22.4412 -1.12911
21.8011 22.1722 -1.57953
22.9422 22.8791 -0.650375
23.4031 22.438 -0.792503
20.6926 21.8239 -1.19981
23.037 22.2454 -0.688869
23.2433 22.3392 -0.74144
21.8351 20.9413 -0.93885
23.5483 22.3321 -1.19514
21.5459 20.4042 -1.74799
21.6728 21.8264 -1.75836
20.6508 20.0619 -1.70601
22.2366 22.3269 -1.66885
22.888 22.0878 -0.618546
23.6313 22.3447 -1.34829
23.5197 22.4333 -1.1366
20.6017 21.0905 -1.3459
21.8546 20.6655 -1.84187
22.8429 21.6258 -1.41392
22.3951 21.487 -0.841221
22.0718 22.8092 -0.712841
20.8905 21.8937 -1.14444
20.4624 20.2043 -1.75861
21.3955 20.3467 -1.39676
22.9976 21.7016 -1.5411
22.4259 21.1748 -1.94707
23.3342 21.9451 -1.89895
21.5675 20.7099 -1.10074
21.7548 21.7921 -0.722664
20.5341 20.8052 -1.39036
22.7438 23.1371 -0.731514
23.2882 22.2659 -0.792885
23.2007 21.9984 -1.81988
22.5557 21.4158 -1.02224
22.915 21.7303 -1.23071
20.9869 20.6934 -1.26064
23.4687 22.1287 -2.0374
23.7658 22.5406 -1.228
21.8361 20.9447 -0.899403
22.1922 21.0274 -1.45003
23.5287 22.1833 -2.07384
22.3183 22.361 -1.64216
20.0816 21.0504 -1.57459
23.6138 22.3712 -1.73336
22.025 21.3272 -0.710072
22.7293 22.9241 -0.709312
21.663 20.7748 -1.01468
22.8521 21.5385 -1.94787
23.7793 22.5185 -1.16001
22.7809 22.4422 -1.1132
21.63 20.9363 -1.05238
22.4511 21.1953 -1.54301
22.4984 21.2273 -1.98592
23.1895 22.4494 -0.678299
20.5167 21.1579 -1.35242
22.7599 21.4773 -1.84956
20.4968 21.1889 -1.35858
23.4299 22.0979 -1.53677
22.2399 20.9931 -1.78913
21.9391 22.5492 -0.744751
22.494 22.438 -0.673485
23.2118 21.8562 -1.89075
23.2508 22.8943 -0.692368
22.3575 22.8955 -1.33607
20.5961 21.044 -1.35629
21.8741 20.6924 -1.56236
20.7677 20.4653 -1.36336
21.1162 22.0696 -0.977592
20.3677 21.2562 -1.41168
23.2929 22.3411 -0.739689
21.6494 20.4116 -2.09988
21.1411 22.2485 -1.36522
22.1919 21.4457 -0.651833
23.2234 22.0123 -1.16755
22.0745 20.9568 -1.16415
23.0414 21.9058 -0.967953
22.2261 22.6852 -0.727123
20.9431 20.6351 -1.29318
21.5356 22.2588 -0.764961
21.9962 22.1812 -0.704548
23.6047 22.5735 -0.837463
23.2367 21.953 -1.98649
22.9704 22.6776 -0.670563
22.8965 23.0453 -0.710453
23.4079 22.0761 -1.43333
21.191 20.5455 -1.25081
23.7858 22.4263 -1.68819
20.666 20.1031 -1.92227
20.1557 20.5517 -1.78448
21.6327 21.8254 -0.746635
23.458 22.2599 -1.10385
20.872 21.9589 -1.18465
22.6954 22.396 -0.656456
21.7063 21.5945 -0.737801
23.1021 22.6594 -0.657314
21.7434 20.9416 -0.934963
23.3483 22.051 -1.6106
23.2587 21.9307 -1.96771
21.103 22.1744 -1.6457
20.5114 21.193 -1.37383
22.6256 21.3163 -1.68335
21.2932 20.223 -2.20883
21.792 22.1527 -1.56284
20.2692 21.4099 -1.4499
21.2287 20.4855 -1.27243
21.8515 20.9449 -1.08088
22.9785 21.6415 -1.90471
21.7565 22.1991 -1.54552
21.9323 22.2538 -0.721073
22.3039 22.8484 -1.67744
20.3825 20.4657 -1.57124
21.5152 22.4234 -0.795963
21.7559 20.6614 -1.34542
22.6431 21.791 -0.648994
23.6616 22.2652 -1.80297
20.1887 21.3697 -1.48004
23.7367 22.5128 -1.10184
20.7915 21.8313 -1.1586
22.9408 22.2037 -0.933773
23.2841 22.3655 -0.702591
22.3009 21.1113 -2.0139
21.2163 20.2537 -1.76887
22.3411 22.8402 -1.45439
20.6421 21.7442 -1.28651
23.6383 22.3808 -1.24971
23.5773 22.2046 -1.73351
20.6258 20.6391 -1.39235
23.3634 22.9519 -0.730545
20.2985 21.1994 -1.44865
20.8461 20.6954 -1.30841
20.7537 20.8436 -1.32914
20.7058 20.6616 -1.34584
22.5007 21.4955 -0.894306
22.0826 20.894 -1.39523
22.7005 21.4158 -1.3937
23.0497 22.1759 -1.04303
21.4463 20.3541 -1.60457
22.4624 21.2412 -1.53789
21.0422 20.7499 -1.26304
21.8507 20.6567 -1.79654
22.7465 21.4473 -1.74682
22.796 22.1938 -0.638786
20.439 20.2564 -1.95986
21.9285 22.3865 -0.720531
21.6537 22.4022 -0.776356
22.1325 21.9199 -0.678211
22.9802 21.7624 -1.21671
21.9727 22.173 -1.41477
23.6296 22.2027 -2.06424
21.849 20.6775 -1.60106
20.7581 20.6065 -1.35307
20.6991 21.7907 -1.23908
22.7436 23.413 -0.781349
22.9466 23.031 -0.710354
20.1544 20.6976 -1.67304
22.8248 22.0417 -0.597099
21.4494 22.3172 -0.794968
23.831 22.549 -1.40265
22.3837 22.6505 -0.694675
22.5975 21.4316 -1.16149
21.4592 20.331 -1.75022
23.5814 23.1584 -1.3496
20.969 20.3684 -1.31705
20.4074 20.8072 -1.43435
20.0911 21.2021 -1.5431
20.9196 20.6728 -1.30423
23.5383 22.4998 -0.800823
21.9141 22.3891 -0.715065
20.2854 20.584 -1.54815
22.3525 21.1327 -1.69592
20.9411 20.7968 -1.25325
23.231 22.5215 -0.682522
23.5218 22.0482 -2.14174
20.7848 20.6892 -1.34464
21.451 20.3788 -1.43444
22.7765 21.7285 -1.17747
20.89 20.6562 -1.3036
22.4841 21.6104 -0.694626
20.4397 21.0005 -1.39293
21.6279 20.6169 -1.18442
22.0372 21.7741 -1.43592
20.9361 20.2914 -1.38293
23.0506 21.7525 -1.84036
23.7158 22.9913 -1.68288
20.8378 20.8991 -1.30853
22.415 23.1105 -0.763702
23.0908 22.1861 -0.698765
21.4641 20.4772 -1.28113
21.8181 20.6214 -1.88673
22.6809 21.3812 -1.49102
21.5959 22.338 -0.780792
21.5993 20.6881 -1.90997
22.861 22.0954 -0.605278
22.0363 21.1535 -0.828297
22.8829 21.5811 -1.44995
22.9534 22.0771 -0.686863
22.1767 21.8716 -0.666458
22.5637 21.802 -0.658119
21.5495 20.6013 -1.15943
23.5588 22.621 -0.731289
21.9371 21.5336 -0.683769
23.5563 22.6042 -0.651447
21.5341 20.8782 -1.14819
21.118 20.4511 -1.26987
21.6045 20.4457 -1.74004
22.5418 22.4414 -0.66468
23.7608 22.629 -1.04257
21.7524 21.9343 -0.715256
22.5456 22.8515 -0.706398
22.6712 22.1832 -0.649906
23.6046 22.4633 -0.987556
22.2416 21.6435 -1.23295
22.3281 21.4407 -0.71664
20.5057 20.3035 -1.5952
20.5527 21.3476 -1.3128
22.2475 21.0478 -1.48906
20.4563 20.7509 -1.40399
22.504 21.2776 -1.59314
23.6236 22.2215 -1.83867
23.0997 22.153 -0.99823
20.5904 20.3402 -1.49201
21.8578 20.7116 -1.42856
21.3979 20.2403 -1.99422
22.4127 21.1976 -2.01653
22.6914 21.4014 -1.84338
22.0931 21.2965 -0.706909
21.0894 20.703 -1.24754
22.9108 22.9266 -0.656368
20.4666 20.3679 -1.58875
22.4663 21.5915 -0.778118
21.7387 21.7986 -0.707672
22.9404 22.0026 -0.696774
23.6798 22.626 -0.864105
20.501 20.9413 -1.39188
23.0141 22.1617 -0.740105
21.494 22.4364 -1.59367
22.9387 22.1889 -0.890045
20.8881 21.7462 -1.13589
21.7979 21.3546 -0.771572
20.4965 20.686 -1.40504
21.4834 22.3407 -0.78125
22.9463 22.0716 -0.655849
20.6874 20.3419 -1.45817
23.083 21.7503 -1.60505
23.3656 22.0333 -1.67476
21.5772 21.8613 -1.68744
20.4942 21.4183 -1.40641
20.4425 20.6783 -1.44851
21.9449 20.8701 -1.25819
20.6454 20.2004 -1.63681
23.2321 21.9615 -1.25188
23.7819 22.5099 -1.20229
22.4806 21.2802 -1.30315
22.3245 21.0983 -1.65108
22.3245 21.1198 -1.51751
22.3501 21.711 -0.685997
20.5946 20.6536 -1.39389
20.8925 20.146 -1.63831
20.7325 20.626 -1.37053
21.8165 20.6405 -1.83344
22.5887 22.6952 -0.688583
21.8066 20.6786 -1.44751
21.5252 22.2347 -1.71237
21.8196 22.1068 -1.55229
23.893 22.741 -1.68615
21.8473 20.6858 -1.78324
22.0372 20.8491 -1.39718
23.0534 22.3441 -0.650082
20.9263 20.0202 -1.84878
20.6228 20.1426 -1.6733
21.7491 20.7577 -1.15744
21.7664 20.5862 -1.64301
23.4953 22.1463 -1.70594
21.3113 20.5313 -1.27876
22.3132 22.3452 -0.679569
22.9044 21.5963 -1.64824
22.6757 21.3517 -1.86434
20.2358 20.9818 -1.48565
21.3507 20.2915 -1.44822
23.0846 21.825 -1.45406
23.0409 22.1195 -1.1277
23.4511 22.4405 -1.0843
23.6951 22.9677 -1.23763
22.193 22.9274 -0.716507
23.2332 22.039 -1.15454
20.6937 20.0413 -1.79334
23.2056 21.881 -1.4407
21.9499 21.4964 -0.702652
23.2301 21.8972 -1.78349
21.5551 20.5753 -1.23886
23.0862 22.4904 -0.657372
21.9866 22.0659 -0.696678
21.7883 20.6145 -1.50443
22.2442 22.4394 -1.68292
22.2963 21.0512 -1.5953
22.7929 23.099 -0.723553
21.6025 20.4426 -1.79588
22.8047 22.9809 -0.697941
22.6032 22.3903 -0.657261
21.7304 21.9276 -0.722572
23.746 22.9486 -1.60098
21.6434 22.6544 -1.60538
21.1748 20.1132 -1.6101
21.9572 22.1645 -1.24216
20.1133 21.2032 -1.50914
21.0497 20.2406 -1.38158
22.1445 22.7518 -1.72728
22.4363 23.1407 -0.740707
22.0533 21.7809 -1.29247
22.3947 22.3285 -1.65578
21.5862 22.3561 -0.756683
23.0458 21.7529 -1.78899
22.9219 22.5895 -0.664742
23.8539 22.6579 -1.29386
23.6837 22.9467 -1.15304
21.086 20.5465 -1.25821
21.7365 20.6146 -1.86787
21.5838 20.4696 -1.5624
21.3403 20.4859 -1.27606
21.3882 20.2754 -1.54874
23.1485 21.813 -1.69035
21.7491 22.0963 -0.715771
21.6831 20.4608 -2.00061
23.0029 21.9342 -1.02365
22.8863 22.6417 -0.666695
23.5359 22.2722 -0.998291
22.1929 21.4756 -0.69455
23.1585 22.1083 -1.13082
20.5164 20.3455 -1.50674
20.3972 20.3432 -2.08678
21.6648 20.7135 -1.98619
23.6435 23.1405 -1.72095
22.6019 22.5689 -0.676411
21.3976 20.2649 -1.54118
22.5421 21.2811 -1.54483
22.6176 21.4291 -1.27363
23.153 21.8295 -1.50151
21.8912 21.9083 -0.697617
21.1085 20.1324 -1.57086
22.3864 21.5522 -0.663158
20.224 20.4734 -1.74156
20.9476 20.4609 -1.33045
20.7992 20.5931 -1.33929
23.1229 21.7953 -1.46404
22.9164 21.7929 -1.15831
21.4728 22.3348 -0.760239
23.1856 21.8156 -1.7918
23.0484 22.4954 -0.659866
23.5999 22.4844 -1.73273
21.0671 20.313 -1.31632
22.8043 21.4972 -1.5507
20.0516 20.8629 -1.6952
22.1612 21.6972 -1.34473
21.8927 20.7125 -1.50106
21.4842 21.9524 -0.776451
21.039 20.1744 -2.13898
21.732 22.6017 -0.78067
21.6854 20.6756 -1.22683
22.4975 22.7479 -1.23016
21.5832 22.2276 -0.789803
22.0195 20.8387 -1.20291
23.4505 22.1626 -1.28183
23.4571 23.3218 -1.63474
22.1776 21.2908 -0.800228
23.8622 22.5489 -1.79047
21.6404 21.9536 -1.69432
21.1263 22.0822 -1.0024
21.4725 21.8626 -1.72752
23.613 22.3631 -1.70348
23.6878 22.9894 -1.29505
21.6979 20.5944 -1.39345
23.1922 22.1427 -0.932743
21.7714 22.6131 -1.68802
22.8234 21.5059 -1.56565
22.0976 21.2581 -0.744873
22.9038 21.5898 -1.5862
21.3812 22.0148 -0.818138
20.4411 20.3586 -2.14597
20.7352 20.0246 -1.77843
23.516 22.2966 -1.6199
21.9861 20.693 -1.14945
23.0564 22.2026 -0.689026
20.8385 20.4897 -1.35711
22.6884 21.3959 -1.94532
22.8508 22.8446 -0.684299
23.2476 22.7505 -0.676304
22.6097 21.4928 -1.17653
22.2943 22.2252 -0.67128
21.2802 20.1486 -1.91118
22.6763 22.4339 -1.39354
21.2389 20.6339 -1.27612
23.4194 22.0176 -1.98915
22.2419 22.5793 -0.701172
20.3957 20.6459 -1.48514
21.408 22.3954 -1.64671
20.0416 21.0217 -1.64619
21.6442 20.5939 -1.3014
20.7859 21.8 -1.20562
20.5502 20.4344 -1.4568
20.5563 20.1568 -2.00868
22.1337 20.9087 -1.69936
20.9296 20.3844 -1.34374
22.0747 22.2285 -0.704517
20.8819 21.0287 -1.32598
23.1515 21.8377 -1.44179
21.8318 20.667 -1.4946
22.0418 20.736 -1.09247
20.6677 20.7036 -1.37206
23.665 22.2944 -1.58755
23.0486 22.3275 -0.61932
21.7321 20.546 -1.64764
23.538 22.537 -0.795616
21.437 20.1956 -2.20299
22.4114 22.436 -1.67493
22.5244 21.569 -0.744678
23.3228 22.1344 -0.910744
23.3146 21.978 -1.47723
23.5691 22.1681 -1.87617
22.0503 21.5055 -0.689579
23.5343 22.1297 -1.95859
20.1437 20.8038 -1.56061
22.9063 22.214 -0.620174
22.0779 22.3328 -0.710583
23.6059 22.4107 -1.05569
22.4288 22.1885 -0.655689
22.1752 22.5209 -1.68688
23.4974 22.557 -0.700619
21.2908 20.2871 -1.68389
21.0123 20.6678 -1.24946
23.8511 22.5885 -1.38274
22.911 21.9822 -0.78014
20.6578 21.1522 -1.33011
22.3676 22.409 -0.66843
20.9006 20.0169 -1.66004
22.652 21.3555 -1.79564
20.6861 20.1982 -1.60841
21.889 21.4871 -0.70929
23.1082 22.6506 -0.671684
22.5684 21.3775 -1.27282
22.2709 21.7769 -0.655106
23.1995 22.6814 -0.663425
22.2265 21.0503 -1.35429
22.0456 22.4513 -1.66703
22.5564 21.4863 -1.08469
21.2256 20.1176 -1.73315
22.6519 22.4927 -0.662865
21.3301 20.1457 -2.0547
21.2088 20.2229 -1.89486
21.9046 21.3591 -0.7355
20.8726 21.8965 -1.2333
21.0367 20.4888 -1.30191
21.7658 20.5692 -1.73339
21.4249 20.3059 -1.79637
22.0477 22.4912 -1.668
22.4942 21.6538 -0.657619
22.2209 21.634 -1.35383
23.7198 22.3332 -1.85624
23.7449 22.4423 -1.34595
20.5509 20.5902 -1.40844
23.0965 22.9493 -0.69202
23.2133 21.9103 -1.9363
22.7378 21.8491 -0.695023
22.8324 22.9843 -0.707985
22.3883 21.1831 -1.31963
23.9177 22.6781 -1.83255
23.6085 22.2982 -1.43352
21.0094 20.6464 -1.28604
21.2733 22.3315 -1.41754
21.7421 20.7967 -1.04127
21.1408 20.165 -1.43667
22.8871 22.2446 -1.20422
23.2473 22.3429 -0.700756
21.471 20.3143 -1.94471
22.0382 22.9561 -1.66827
23.0031 22.3979 -0.644035
20.6613 21.0014 -1.34729
21.8484 22.3002 -0.714676
20.1845 20.5292 -1.72744
23.553 22.2421 -1.61689
22.6846 21.3589 -1.9288
22.9942 21.971 -0.88633
22.0237 20.787 -1.89284
21.6878 22.29 -1.58826
21.0345 20.0495 -1.90372
20.2091 20.5023 -1.98683
21.6427 20.4067 -2.14069
22.6017 21.3347 -1.44736
21.7974 20.7328 -1.01224
21.3863 22.1472 -0.797203
21.5836 20.3987 -2.10978
22.3432 21.5446 -0.841499
21.9525 21.6526 -0.699471
22.3625 22.8074 -1.49877
20.4784 20.9813 -1.38177
23.1153 21.8231 -1.61268
20.9378 20.0295 -1.93784
21.1524 22.2076 -1.54022
22.2997 21.6534 -0.680466
23.1399 22.3534 -0.604839
21.9511 22.1682 -1.3693
21.9854 22.079 -0.704567
21.6978 20.5688 -1.44572
21.8245 20.6623 -1.59473
23.2768 22.0197 -1.65273
23.7813 22.454 -1.49353
23.6727 22.3791 -1.30672
21.1848 20.0889 -1.84349
22.1192 21.7845 -1.22131
22.9303 21.6093 -1.59584
23.3067 21.9118 -1.59098
22.3999 21.292 -1.19446
22.4767 22.1376 -0.658073
23.5495 22.4802 -0.933414
22.4081 21.1722 -1.59276
23.4167 22.0482 -2.0526
21.0338 20.0498 -1.94497
20.5542 20.3416 -1.50189
21.1564 20.1007 -1.88663
20.1091 20.5978 -1.82268
22.3588 21.1848 -1.29139
22.9205 21.5851 -1.93919
22.2968 21.6288 -0.851944
20.6488 20.1448 -1.6535
22.5503 22.2314 -0.65234
22.0775 22.6743 -1.69972
22.807 21.5903 -1.33949
21.7332 20.6369 -1.97536
21.8528 22.863 -1.62982
22.2424 22.2955 -0.680275
20.0442 20.7534 -1.7748
22.7381 22.3354 -0.653919
23.7695 22.8701 -1.33747
23.5479 22.6143 -0.692234
23.202 21.8407 -1.84826
21.0997 20.5008 -1.2854
21.0665 20.3661 -2.08907
22.4023 21.2591 -1.16732
22.0546 20.8477 -1.88914
22.1521 20.9345 -1.80199
20.1591 20.7587 -1.55425
21.0541 20.2021 -1.36411
23.1754 21.9668 -1.14347
22.9344 22.8727 -0.686356
21.515 22.1528 -0.786488
21.7938 20.6378 -1.64812
20.9311 20.4849 -1.3269
20.8016 20.0382 -1.90308
20.3354 20.7453 -1.48914
22.767 21.4728 -1.44601
20.9006 20.0424 -1.99757
21.4049 21.9085 -0.798851
23.6472 22.2997 -1.49191
22.4346 22.6146 -0.689507
22.6901 23.3066 -0.754772
22.6128 22.5178 -1.377
21.7138 20.5119 -1.92963
20.9395 20.5498 -1.30264
22.9265 22.8319 -0.669544
23.8154 22.449 -1.82728
21.1082 20.133 -1.48633
20.8456 20.0749 -2.07483
22.6962 21.3867 -1.69667
22.6462 21.4317 -1.28745
22.6412 21.3377 -1.70444
21.6198 20.5656 -1.33201
23.1015 22.2064 -0.742157
20.2612 20.5063 -1.63916
23.4186 22.2654 -1.1893
20.9358 20.165 -1.53661
21.1498 22.2034 -1.73874
20.698 20.094 -1.64862
21.5333 20.7617 -1.15605
22.2665 21.0207 -1.67756
22.4477 22.7168 -0.698895
21.0688 21.9872 -0.981449
22.7299 22.4952 -1.09997
20.7375 20.2388 -1.50307
23.0254 22.1664 -0.961624
23.3146 22.5049 -0.624733
22.7184 22.4684 -1.22121
20.8767 20.9285 -1.25816
23.0875 22.4196 -0.642029
22.6767 21.3678 -1.68086
23.496 22.4765 -0.858967
22.0536 20.8145 -1.67934
