14.8848 16.4309 -0.977383
15.7012 16.1042 -1.03976
14.7897 14.9864 -2.04823
15.2645 16.4582 -1.52233
14.3321 15.6975 -1.00853
14.201 14.5544 -1.84076
14.6758 14.8518 -1.7975
13.3045 14.305 -2.1987
16.0536 15.9963 -1.99086
13.7648 14.3762 -1.51731
15.5659 16.0977 -1.32962
13.6884 15.9612 -1.25968
15.6491 15.8538 -1.95359
15.88 16.2365 -1.15679
13.9905 14.2985 -2.19906
14.2798 14.6933 -1.40794
14.2078 14.531 -1.79038
14.763 15.8391 -1.39961
14.7456 15.0151 -1.48756
15.486 15.4918 -1.85704
15.7899 15.742 -2.09686
14.4369 14.6684 -1.84657
15.6194 16.1069 -1.24419
15.393 15.7999 -1.04452
14.1466 14.4545 -1.89414
14.7848 15.3849 -0.99086
13.7953 14.3978 -1.54519
14.5431 15.2824 -1.01113
15.9414 15.8928 -1.68494
15.9048 16.0818 -1.33134
15.7687 16.0946 -1.12822
14.7013 15.7319 -1.67257
15.7721 16.1547 -1.06835
15.5996 16.0034 -1.07192
14.5164 15.054 -1.17501
14.9617 15.6622 -1.33058
15.5333 15.5641 -1.89568
13.9354 15.109 -1.40289
14.3303 16.1917 -1.90396
15.5113 16.1476 -1.37713
15.7569 15.7735 -1.62768
14.5763 15.6416 -0.971348
14.0699 16.2314 -1.86166
15.2877 15.5899 -1.21087
13.2927 14.9807 -1.57013
15.1813 15.6286 -1.10691
15.6986 15.7606 -2.04974
14.6774 16.6263 -1.88597
15.1325 15.5901 -1.21643
14.6424 14.8791 -1.58952
13.8573 14.6183 -1.65195
13.7473 15.9579 -1.23369
14.9155 15.5949 -1.53199
15.2636 15.5752 -1.36382
14.3911 15.1624 -1.48887
15.7458 15.9963 -1.29698
15.4987 16.1681 -1.34712
13.5357 15.6425 -1.39766
15.5945 15.6058 -1.6
14.5503 14.8274 -1.59453
14.2139 15.039 -1.38829
15.4232 15.4819 -1.91798
13.5006 14.3156 -1.73075
13.956 14.2429 -2.24445
15.6101 16.103 -1.33838
14.6304 15.158 -1.08311
15.8406 15.8552 -1.546
13.5582 14.1561 -1.94353
14.8437 16.2466 -1.85536
16.0453 16.2894 -1.46089
14.1304 16.2871 -1.97067
14.1401 14.4925 -1.99671
15.4448 15.64 -1.38383
15.5584 15.5898 -2.03682
14.698 15.8465 -1.48667
15.5431 15.6964 -1.39676
14.2092 15.4167 -1.8734
13.4849 14.2459 -2.1341
15.5675 15.7978 -1.37529
14.3682 14.7263 -1.44983
15.6905 15.9834 -2.31924
14.2917 16.0343 -1.93509
13.8977 14.3145 -1.92163
14.554 15.2622 -1.00412
12.9884 15.1087 -1.66061
14.0016 14.3915 -2.00999
15.3705 16.3199 -1.52322
15.4192 15.4799 -2.04581
13.6766 16.0162 -1.64209
15.4404 15.4891 -2.04539
15.8541 15.8506 -1.75327
14.44 15.8355 -0.967182
15.2846 15.3598 -1.90442
15.2761 15.4789 -1.36005
16.0777 16.1719 -1.41895
14.5991 15.9432 -1.62543
15.936 16.7359 -2.01297
14.1895 14.4831 -2.24032
14.5529 14.7622 -1.74107
13.5077 15.2522 -1.48516
14.3947 14.636 -1.85144
14.932 15.5013 -1.0316
15.4684 15.6152 -1.37806
15.4319 15.4841 -1.94973
14.3725 14.6059 -1.58809
14.9398 15.0929 -1.64708
15.6919 15.8244 -1.91215
13.6913 16.0276 -1.62831
15.0381 15.1516 -1.89678
15.2443 16.8773 -1.0273
16.0863 16.2866 -1.51332
15.0432 16.3331 -1.86976
15.7429 15.7925 -1.87157
13.3466 14.7379 -1.58861
16.1915 16.19 -1.70053
14.2762 14.6758 -2.0455
15.352 16.5379 -0.966248
15.6525 15.6493 -1.83987
15.5673 16.11 -1.41491
13.8907 15.2007 -1.43643
15.8585 15.8719 -1.59579
14.5918 14.6758 -1.38617
14.6521 15.9684 -1.54333
14.6476 15.2321 -1.03343
15.5564 15.9957 -0.987534
13.8053 14.4988 -1.48385
13.7477 14.1857 -1.9019
13.4884 15.0699 -1.52849
13.8424 14.8407 -1.45508
16.1388 16.0139 -1.74109
15.4892 15.5456 -1.75484
14.6916 15.2368 -1.00565
15.139 15.2918 -1.55032
13.0316 14.6815 -1.83011
14.8756 16.2264 -1.86033
13.9144 16.1996 -1.78025
14.8056 15.3152 -1.03283
13.5387 14.2215 -2.18213
15.5777 16.4837 -1.04385
13.7166 14.388 -2.16327
15.3547 16.0525 -0.929405
16.0535 16.0468 -1.60587
15.8517 15.8917 -1.5471
15.4312 15.4294 -1.82709
15.9566 16.1372 -1.33901
13.6052 14.3177 -1.68459
14.9597 15.1021 -1.90308
14.9963 15.5478 -1.36716
15.8367 15.9494 -1.30885
15.969 15.99 -2.16428
15.746 16.7463 -1.34881
14.0769 14.4297 -1.76876
15.353 16.59 -0.948277
16.1246 16.2227 -2.04645
15.7607 15.9136 -1.3315
15.1628 15.6339 -1.08667
15.0789 16.5226 -1.91157
14.1773 15.4447 -1.89417
15.0717 15.2782 -1.39814
14.0799 15.1058 -1.44748
13.7982 14.3873 -1.58014
14.2152 16.2817 -1.8641
15.8434 15.8324 -1.64468
13.0578 14.657 -1.83458
14.5305 14.8925 -2.2468
13.6774 14.4429 -2.30111
14.9751 15.6704 -1.36929
14.5253 15.041 -1.14935
13.8726 15.9662 -1.21651
14.8696 15.5193 -0.965893
14.5936 15.7896 -1.67071
15.899 15.8335 -2.24345
15.0969 15.5619 -1.01859
16.2275 16.2609 -1.70744
14.3393 15.4819 -1.84021
13.5462 15.7544 -1.39997
13.5112 14.1929 -2.03155
15.3553 15.7504 -1.08125
15.2967 15.7871 -0.98848
14.9561 15.104 -1.68806
16.0227 15.9451 -1.81671
16.0791 16.0097 -1.99692
14.6632 14.8543 -1.63518
14.5994 14.6939 -1.33534
15.9532 16.0778 -1.39469
14.3467 14.9166 -1.21344
16.1064 16.0456 -1.73841
15.8807 16.6998 -1.74635
16.1637 16.1573 -1.5878
14.1068 14.5265 -1.48986
15.1325 15.254 -1.63821
15.9306 16.0817 -1.3529
13.7434 15.8723 -1.31708
14.2382 14.5407 -1.64743
14.2854 14.7465 -1.99786
13.0257 14.6297 -1.95277
15.9458 15.8986 -1.64388
14.1506 14.5432 -1.5411
14.5952 14.9413 -1.45183
13.2601 15.4018 -1.5841
13.4257 15.3443 -1.50496
13.8005 14.2162 -1.84276
15.6151 17.038 -1.76491
14.437 14.9415 -1.16504
14.7766 15.0151 -1.54935
13.7123 15.9647 -1.57154
15.5752 15.5973 -1.81307
15.8407 16.2381 -1.10135
14.0953 14.3515 -2.34563
15.6288 16.0962 -1.33157
13.368 14.2979 -1.82677
14.0669 14.4598 -2.25751
14.3076 14.6635 -1.39591
14.9352 15.1966 -1.40905
15.2774 17.2586 -1.59518
16.1192 16.0887 -1.78978
14.4005 15.912 -0.984901
14.2374 14.7457 -2.14324
13.9243 14.3151 -1.64637
15.2394 15.7085 -0.993244
14.6698 14.865 -1.61137
15.9726 15.9026 -1.65391
14.1488 14.5461 -1.5042
14.2612 14.7194 -1.4216
15.3324 15.8267 -0.962662
15.9647 16.0338 -1.57691
15.6818 16.1216 -1.02151
14.5855 15.9448 -1.61118
14.9394 15.6939 -1.35073
13.6255 14.2593 -1.7768
14.715 16.2648 -1.85955
14.4921 14.8741 -2.25597
14.7394 15.2898 -0.998631
15.1671 15.3446 -1.53521
14.6923 14.9106 -1.59468
12.9521 14.7555 -2.14
13.8833 14.3782 -1.63999
13.993 15.9437 -1.90186
15.0921 17.0533 -1.43174
15.0246 16.5039 -1.65669
14.7041 15.2385 -1.08812
13.0523 14.8857 -1.70549
14.8404 15.6317 -1.6405
13.724 14.3775 -2.13661
15.4263 15.7628 -1.22576
13.9223 14.281 -2.27116
15.7946 15.8759 -1.49214
15.1072 15.2396 -1.59022
13.7917 14.8923 -1.45235
15.4455 15.8969 -0.962723
14.4647 14.7293 -2.05449
15.3845 15.4417 -1.79232
15.9798 16.2828 -1.2965
15.4579 16.1872 -1.51873
14.681 14.8684 -2.09502
14.7438 15.2563 -1.18901
13.2632 15.5016 -1.54915
14.4644 14.736 -1.68964
15.2397 17.2712 -1.57973
14.7935 15.7747 -1.54355
15.166 16.4678 -0.975418
14.1804 14.479 -1.85948
14.3419 15.4784 -1.0146
15.322 15.3992 -1.6594
14.7966 14.9821 -1.63553
14.8898 16.6453 -1.03268
15.702 15.7085 -1.49033
14.4536 16.5127 -1.95102
15.3171 16.2629 -1.74198
14.5859 14.6487 -1.29543
15.5132 15.95 -1.16664
14.9451 16.0576 -1.84053
13.3303 15.498 -1.55935
13.9157 14.3736 -1.67619
14.5663 14.6675 -1.32698
14.882 15.0456 -1.85613
14.2573 14.7725 -1.33772
16.0079 15.9487 -2.04354
14.1074 14.4373 -2.05662
13.979 14.3085 -2.15103
13.3993 14.2943 -1.80886
14.9107 15.7025 -1.16624
13.3402 14.3304 -1.83811
14.2476 14.4656 -1.69714
14.6306 15.1667 -1.00589
14.0471 14.4886 -1.5481
13.2073 14.792 -1.63156
14.1466 14.8159 -1.38906
15.3318 15.3934 -1.69435
14.1968 14.4667 -2.24936
13.5932 14.1384 -2.04259
14.176 14.4825 -2.03877
14.5115 14.8219 -1.48859
15.1031 16.487 -1.74068
13.5413 14.1868 -1.98138
14.9337 15.1405 -1.50463
12.8136 14.9405 -2.12206
14.0921 14.8914 -1.3925
14.9179 15.1095 -2.13305
15.8892 15.8518 -1.80415
14.3005 16.0829 -1.9509
15.4114 15.6125 -1.42465
15.3044 15.3853 -2.03575
14.3073 14.6212 -2.08902
16.0974 16.0212 -2.0137
14.3443 14.608 -1.59688
15.2492 16.1927 -0.917099
13.9942 14.3501 -1.69156
14.5955 14.8151 -1.41375
14.4342 14.6744 -2.10058
13.5067 14.6493 -1.55001
14.3409 16.0475 -1.93954
14.6786 14.8813 -1.65134
14.7315 14.9142 -2.08121
14.3454 14.6024 -1.74603
14.2283 14.5602 -1.53093
15.5142 16.1949 -1.27144
14.3589 15.7565 -1.85355
15.2452 15.8369 -0.956566
15.2764 15.4279 -1.45191
15.3735 15.432 -1.61394
15.2344 16.2384 -0.939438
13.7897 14.3012 -1.60333
14.9817 15.1274 -2.09308
13.9594 14.3772 -1.63458
14.1326 14.8232 -1.3775
15.8585 15.9059 -1.48946
14.7914 14.9867 -1.89063
14.4321 14.6027 -1.8201
15.1396 15.6497 -1.00106
15.5088 15.5811 -1.60929
15.6938 16.0155 -1.26649
13.9149 14.226 -2.17116
14.1018 14.4471 -1.93539
14.9744 16.556 -1.67899
15.8822 15.9213 -1.96227
13.8847 14.2977 -1.65781
13.7578 14.3883 -1.54355
15.0449 15.4776 -1.4423
15.4704 15.5455 -1.42433
13.5023 14.4064 -1.83115
14.0165 14.4328 -2.10426
15.5412 15.58 -1.9476
14.0317 14.3572 -1.729
14.8024 14.9918 -1.79995
15.2562 15.384 -1.53576
15.2851 15.3871 -1.5982
14.1676 15.4498 -1.89074
14.4001 15.5975 -0.997623
12.8678 15.3846 -1.78123
13.4993 14.1946 -2.10001
14.9941 15.1314 -1.79561
15.3566 16.5521 -0.986229
14.9873 15.4701 -1.06692
15.4176 15.7955 -1.08524
16.1898 16.2782 -2.03
14.5814 14.7913 -1.90351
14.587 14.7962 -1.73331
14.06 14.4269 -1.72279
15.5765 17.0712 -1.8114
15.9604 15.961 -1.9994
14.4039 14.6814 -1.7525
13.915 14.7945 -1.41046
13.485 15.1773 -1.53989
15.3647 15.8081 -1.0267
15.4469 15.7202 -1.16632
14.048 14.3967 -1.88869
14.7473 14.942 -1.69384
14.8981 15.7445 -1.18371
14.7166 15.4411 -0.975067
14.7091 15.0289 -1.41897
13.9632 14.296 -1.99425
13.8009 16.0855 -1.6911
15.6003 15.6862 -1.49439
15.2122 15.3446 -1.64167
13.0426 15.0336 -1.65669
13.593 15.8864 -1.33799
13.7385 14.8592 -1.49472
15.3291 15.8041 -0.962936
13.991 14.3389 -1.89188
15.5344 16.935 -1.33811
13.7194 16.0547 -1.75933
14.5364 14.7625 -2.03774
13.982 16.2526 -1.73819
15.422 15.4548 -1.90069
15.9483 15.9731 -1.54691
14.6312 14.805 -1.69944
12.9944 14.6754 -1.97211
14.3621 15.1718 -1.46396
14.3997 14.9035 -1.23973
14.9453 16.5446 -1.70384
14.9066 16.3286 -1.87379
15.275 16.1848 -0.944675
15.5353 16.1867 -1.24655
13.4441 14.3618 -1.79784
15.3003 15.5865 -1.43178
15.4524 15.5548 -1.59031
15.1611 15.2979 -1.59256
13.937 14.3727 -1.70158
16.0417 16.0544 -1.489
13.5095 15.0597 -1.52449
13.8017 14.2749 -1.74527
15.3324 16.0137 -0.965328
15.3157 15.9525 -0.94075
15.9377 16.1834 -1.18807
16.1832 16.1497 -2.02699
14.2869 14.5344 -2.09625
15.2909 15.3565 -1.94184
14.3821 15.7459 -1.86057
15.2011 15.343 -1.58565
12.9421 15.2553 -1.69611
14.4552 14.6825 -1.30687
14.7186 15.9937 -1.48158
14.606 15.1368 -1.08988
15.1168 15.6581 -1.38954
15.259 15.5553 -1.28852
16.0484 16.2975 -1.4798
14.1932 16.2008 -1.03133
14.4403 15.0354 -1.17163
14.5362 16.7116 -1.94047
15.9371 15.8325 -2.25576
15.2488 15.4936 -1.34266
15.7709 15.9012 -1.31247
15.8055 15.8564 -1.49353
15.0821 15.237 -1.54732
15.9777 15.8599 -2.21869
13.06 14.8622 -1.69033
13.9412 14.2912 -1.78605
14.3817 16.2059 -1.79967
14.4586 15.8186 -1.88444
15.7891 16.7868 -1.54799
14.9274 16.4426 -0.967094
16.2314 16.1136 -1.84378
15.8302 16.1476 -1.10971
12.9962 15.3269 -1.65549
14.0407 15.3692 -1.46069
15.7059 15.945 -1.33066
14.6129 16.009 -1.53793
13.1118 14.563 -2.18802
13.8795 14.5701 -1.50714
14.2964 16.1226 -1.96984
14.6626 15.7372 -1.67365
14.451 14.9973 -1.19207
15.1638 15.224 -1.74224
14.9052 15.4167 -1.02117
15.6489 15.5912 -1.67292
14.7289 16.0543 -1.47815
15.1555 16.3495 -0.936188
15.3515 15.5013 -1.58059
16.1602 16.3305 -1.69155
14.3685 15.1808 -1.50012
13.9165 15.1564 -1.42594
15.9689 16.2998 -1.32016
15.4811 15.6142 -1.39958
15.1 15.5901 -1.25449
14.4478 14.7751 -1.45415
15.1621 16.6107 -1.54138
15.442 15.4959 -1.99877
14.3746 14.775 -1.33808
15.0623 15.2389 -1.69636
15.0101 15.6076 -1.31691
13.1109 14.9406 -1.65351
13.2459 14.392 -2.1888
14.2885 14.7397 -1.34346
14.138 14.4484 -2.00201
15.1392 15.6294 -1.04713
16.0843 16.0996 -1.55888
14.0662 15.5088 -1.60626
14.0428 14.3785 -1.67895
15.566 15.6742 -1.48293
14.2536 14.8778 -1.29488
14.8056 14.997 -1.9389
14.0746 14.3412 -2.26515
13.1462 14.5429 -1.82394
14.2608 14.6859 -1.36481
13.5055 15.7564 -1.48708
13.9003 14.3974 -1.54472
14.4057 14.6806 -1.79067
14.339 14.732 -1.38879
14.4675 16.1973 -1.63579
15.8481 16.0449 -1.24314
14.5499 14.8953 -1.52905
15.7396 16.7829 -1.45857
16.1131 16.117 -1.67605
14.1927 14.5324 -2.14237
14.1276 16.0196 -1.06429
15.8506 15.83 -2.18397
14.0496 14.6225 -1.47341
13.9466 14.3219 -1.72182
16.1329 16.0167 -2.054
14.4553 14.7669 -1.45638
14.1213 14.4724 -1.75553
14.1411 14.4312 -2.14493
13.9957 14.438 -1.59028
14.5129 15.3147 -1.00454
16.0679 15.9516 -2.2949
15.7798 15.9283 -1.37563
13.2553 15.0447 -1.5792
13.5219 14.4973 -1.59015
13.5758 14.174 -1.81724
15.3385 15.3956 -1.85043
14.7484 15.7052 -1.66266
12.9375 14.7516 -1.93169
16.1301 16.0929 -1.84994
13.7366 14.3901 -1.5949
15.2859 15.3612 -1.64156
15.8136 15.8124 -1.81988
15.3579 15.4359 -1.59507
15.6795 15.6589 -1.69498
13.4939 14.2379 -1.95045
13.2275 14.4059 -2.01429
16.03 15.9749 -1.8481
14.5878 14.7899 -1.94761
14.4288 14.7587 -2.20213
15.8288 15.976 -1.35743
15.1111 15.6924 -0.939167
14.8931 15.4091 -0.985123
14.4114 16.1627 -1.793
14.6468 15.393 -0.977577
15.0143 15.2596 -1.48631
15.8606 16.1569 -1.18755
13.6464 14.1389 -2.13768
15.2953 15.3488 -1.74491
12.9909 15.3089 -1.63568
15.6124 15.6436 -1.59754
15.4877 16.2374 -1.25698
14.4391 14.6619 -1.77971
15.8651 15.9202 -1.50302
14.8952 15.4335 -1.03812
13.6783 14.3069 -1.61451
13.7378 14.1533 -2.14986
15.7474 16.3958 -1.00837
14.9858 15.5301 -0.998863
15.1867 15.2857 -2.07609
15.6602 16.1121 -0.997593
15.7448 16.1508 -1.00772
15.5778 16.1757 -1.337
15.1003 16.493 -1.90541
15.3629 15.9058 -0.943008
13.2282 14.4272 -2.19473
14.8917 15.056 -1.56841
13.731 14.8713 -1.50587
14.1978 14.5714 -1.6262
14.9366 15.08 -1.79935
13.1956 15.1341 -1.582
14.1948 15.985 -1.92833
15.8533 16.4245 -1.19881
14.9261 15.6701 -1.11122
14.0756 14.4246 -1.98473
14.0897 15.2912 -1.45411
13.6852 14.8791 -1.48655
16.0013 16.0038 -1.59316
14.9095 15.076 -1.99587
15.3597 17.239 -1.65286
14.6196 15.8894 -1.57135
16.0076 16.6 -2.00938
15.0837 15.2258 -1.51057
16.0581 16.1331 -1.4972
14.1066 14.607 -1.41275
15.2083 15.2999 -1.9444
14.3203 15.9479 -1.92437
15.6876 15.683 -1.7489
15.2597 15.5851 -1.23183
15.5884 16.9192 -1.39467
14.013 14.4016 -2.13488
15.251 16.8416 -1.02964
16.1288 16.0949 -2.22074
13.8451 16.0272 -1.23115
15.1912 15.3424 -1.53686
13.8972 14.42 -1.54597
15.0927 15.2101 -1.94149
14.0068 15.7744 -1.10562
13.8914 14.781 -1.44962
14.2104 15.9603 -1.92733
14.0622 14.383 -2.09847
16.0275 16.5863 -1.9884
14.4324 14.7352 -1.55205
14.1386 15.8746 -1.89822
16.0554 16.5541 -1.89263
15.5698 16.1244 -1.38286
16.0788 16.1483 -1.49551
14.9614 15.5969 -1.05589
13.5792 14.4249 -1.59657
14.7251 15.2349 -1.11448
15.901 15.8565 -2.10219
14.1037 15.7724 -1.86858
13.5846 14.1773 -1.94566
14.1864 14.5414 -1.54769
14.8324 15.0757 -1.57687
16.102 15.9744 -2.23171
13.7348 14.3268 -1.58746
14.7271 14.9426 -2.12728
14.0949 15.2278 -1.40364
14.7363 14.9107 -1.7898
14.3031 14.597 -1.90528
14.4906 14.7813 -1.30161
15.0746 15.4016 -1.40931
15.731 15.7885 -1.39983
15.495 15.5403 -2.03625
15.3588 16.3389 -1.52702
15.4877 17.2437 -1.85588
14.8415 15.6172 -1.54753
14.7198 15.7607 -1.50357
15.282 15.5924 -1.24024
15.7945 15.8927 -2.19036
14.3829 14.8309 -1.26653
15.7493 15.8501 -1.39383
15.6307 17.0226 -1.73967
14.5327 15.7265 -1.83572
14.0922 14.5023 -2.03399
14.4981 14.7381 -1.34837
15.638 15.651 -1.80655
13.9749 14.2662 -2.29443
13.2918 15.3882 -1.58722
16.0534 16.0929 -1.54742
15.0456 15.1969 -1.59953
15.9215 15.9518 -1.46713
14.9005 15.0598 -1.94036
14.4978 16.0996 -1.69111
15.5015 17.188 -1.80414
14.0516 14.3541 -2.13358
15.1136 15.3506 -1.42988
15.0025 15.4982 -1.44721
13.5946 14.2023 -2.24018
15.1277 15.6128 -1.00518
15.2327 15.4362 -1.40038
14.2874 15.798 -1.87848
14.5399 14.7778 -2.09371
13.5574 14.3033 -1.80658
13.592 15.7064 -1.35373
14.8876 15.0464 -1.90039
13.9381 14.2493 -2.09474
15.1715 16.3754 -1.86217
14.4299 14.6432 -2.04642
13.3072 14.3591 -2.13482
13.3537 15.6435 -1.51497
15.1991 15.4867 -1.35631
14.4323 14.6936 -1.64888
12.8128 14.9642 -1.94456
14.4812 15.7106 -1.90678
14.5835 14.8308 -1.59648
15.7984 15.7762 -1.70428
14.1528 14.5933 -1.41145
12.8074 15.1366 -1.87603
12.9687 14.7076 -1.97652
13.6988 14.8438 -1.47623
14.3038 15.9089 -1.91353
13.4238 15.4656 -1.45042
15.0301 15.1534 -1.69294
15.0998 15.2239 -1.99685
15.4204 15.463 -1.93102
14.5007 14.7036 -2.04824
14.7558 15.0778 -1.43485
14.3191 14.5839 -2.21144
13.9939 15.2409 -1.40038
15.3994 15.9452 -0.94455
14.9568 15.1985 -1.49589
14.4134 16.0135 -1.94551
13.0703 15.0141 -1.67418
15.4507 16.2884 -1.27317
13.3108 15.6198 -1.5713
13.7284 16.0527 -1.76936
14.2419 15.7096 -1.8367
14.2152 14.524 -1.97018
14.9472 16.1601 -1.83363
16.0831 15.968 -2.28008
13.557 14.3571 -1.82508
15.2317 15.3837 -1.67222
15.8621 15.8358 -1.6877
14.2168 14.7751 -1.34104
13.4027 14.5066 -1.62333
14.0755 14.4097 -1.901
14.2645 14.8418 -1.29741
14.4795 15.1408 -1.33607
15.6534 16.065 -1.09509
14.3732 14.7118 -1.40179
14.8507 16.5048 -0.99395
15.7395 16.9489 -2.05434
13.8292 15.827 -1.18861
15.5433 15.5947 -1.74522
15.6372 16.5872 -1.01226
14.0802 14.5857 -1.44031
14.8827 15.8138 -1.37266
15.4792 17.2314 -1.80533
15.8139 16.0687 -1.14236
15.7187 16.0182 -1.08262
14.2592 14.6284 -1.49552
16.2046 16.3099 -1.79341
14.118 16.1189 -1.91451
15.5894 16.1722 -1.30605
16.0094 15.9539 -1.83128
13.4914 15.7519 -1.4572
14.2842 14.56 -2.29602
14.9823 15.1606 -1.48815
14.984 15.1395 -1.95332
13.5203 14.2238 -1.79616
14.7825 15.7819 -1.43411
14.744 14.9851 -1.59219
14.3922 14.9704 -1.18932
14.2502 14.5134 -2.03712
15.0441 15.2954 -1.39859
14.8395 15.0598 -1.54883
15.6967 16.0457 -1.09802
14.5404 14.7812 -1.79302
13.9872 14.6366 -1.43502
14.2495 14.5424 -1.89547
14.6202 14.6988 -1.2731
13.9426 14.3493 -1.65079
13.9348 14.4924 -1.4978
16.1516 16.1586 -1.52725
15.3061 15.3798 -1.80971
15.2471 16.3483 -1.74326
15.6474 15.8279 -1.39353
14.5239 15.5646 -0.978642
15.4103 16.2105 -1.63364
14.584 14.7663 -1.77943
15.1489 15.2338 -1.80119
15.692 15.737 -1.65096
14.0905 14.391 -2.14298
14.2545 15.5548 -1.04173
13.1264 14.6422 -1.715
14.5037 14.7306 -1.79638
15.9521 15.9527 -1.94431
15.4589 15.7923 -1.14569
15.8061 15.794 -1.74415
15.6868 15.7736 -1.49926
13.2932 14.6797 -1.63277
15.2012 15.5533 -1.18613
15.6558 15.7836 -1.38872
16.1608 16.0698 -2.06475
15.2411 15.7468 -1.03678
13.9273 14.2536 -2.05128
15.8477 15.8387 -1.99318
14.287 14.5339 -1.70828
14.535 14.7103 -1.3714
16.0784 16.1219 -1.53226
13.3838 14.2957 -1.84681
14.2798 14.521 -2.21477
14.3891 15.4924 -1.81882
15.4035 15.4828 -1.94727
14.4877 15.6036 -1.84122
15.0381 15.4999 -1.39209
16.0465 15.8962 -2.29906
14.8479 15.1238 -1.4101
16.0457 16.4996 -1.61196
15.4737 15.4847 -1.80252
13.8896 14.259 -2.00682
14.5405 14.7841 -1.69418
16.1349 16.0476 -1.94965
14.4835 15.0273 -1.22496
14.5467 14.7454 -1.59542
14.6577 16.6288 -1.86433
14.4532 16.4715 -1.8112
14.0189 15.269 -1.34125
15.8405 16.1502 -1.15265
14.7508 15.037 -1.49414
13.8905 15.745 -1.17355
13.0871 14.6199 -1.83389
14.6063 14.9016 -1.67376
14.9967 16.2545 -0.94648
14.2003 16.0862 -1.94598
14.4332 15.0288 -1.15191
13.5593 15.0992 -1.49275
13.8468 14.4088 -1.50325
15.2938 16.1384 -0.926945
13.3778 14.2704 -2.20494
15.4596 15.5518 -1.68983
14.3528 14.6935 -1.54941
15.1035 15.6879 -0.917622
13.5967 14.2297 -2.27856
15.2062 15.3378 -2.00293
14.1544 16.0639 -1.94515
15.5724 16.0795 -1.30787
15.2791 15.753 -0.957962
14.397 14.6973 -1.60559
13.5911 15.0767 -1.49474
13.5891 14.1886 -1.85251
15.4043 17.2414 -1.72337
16.2474 16.2104 -1.88258
15.3444 16.9344 -1.08078
13.588 14.5338 -1.55157
15.9216 16.4776 -1.30421
14.9025 15.4734 -0.943661
13.5358 15.1441 -1.50901
14.3179 14.6183 -1.72341
15.436 15.4676 -1.98675
14.1445 14.5026 -1.5868
14.0732 16.0235 -1.91116
14.8829 16.3019 -1.86953
15.7327 15.927 -1.30192
15.4776 17.2735 -1.93086
13.6415 14.2418 -1.73857
14.9828 15.1839 -1.45928
14.6454 15.7379 -1.80273
15.5372 16.1459 -1.38999
13.4693 15.2988 -1.52306
15.7386 15.8743 -1.40697
15.3009 15.7042 -1.08839
14.1455 14.4225 -2.24144
14.2528 14.5994 -1.59273
14.2995 14.5941 -1.99237
14.1876 14.496 -1.59449
14.444 14.9435 -1.19553
14.4957 15.1495 -1.38698
12.8272 14.9081 -2.11198
14.9159 16.5578 -1.72545
15.0457 15.1265 -1.7952
16.132 15.9922 -2.19172
13.5108 14.2064 -1.93648
12.9884 15.1326 -1.68513
15.5868 15.6652 -1.50034
14.0931 15.986 -1.88522
13.7514 14.2349 -1.78514
14.4079 14.7014 -1.6241
14.7311 14.9312 -1.63345
13.3984 14.3421 -1.75156
15.8336 15.8376 -1.91621
14.2949 15.933 -1.92659
14.4874 15.0847 -1.14951
14.1356 16.1632 -1.88895
14.3256 14.6651 -1.45769
13.8032 14.2318 -2.13545
15.0838 15.5242 -1.3994
14.7564 15.3315 -1.03892
14.5566 15.9017 -1.71337
15.0576 16.759 -1.00886
15.1724 15.4949 -1.20717
16.1015 16.0357 -1.89187
16.0272 15.9603 -1.85189
14.1566 15.8617 -1.88281
13.9513 14.2492 -2.14349
14.9258 16.3965 -1.89471
15.0788 16.5612 -1.56247
14.4389 15.8328 -1.88119
15.0427 15.6452 -1.08315
15.6375 15.7523 -1.39794
15.0845 15.6217 -0.960403
13.1138 14.6362 -1.71008
15.5065 15.6106 -1.43866
14.1171 16.2151 -1.90718
15.3203 16.3473 -1.59526
15.4939 15.9422 -0.992619
15.5076 16.9579 -1.3633
16.0202 15.9488 -2.00736
14.3999 14.6375 -1.89701
14.0441 14.4435 -1.59786
14.4506 15.1488 -1.30736
15.0983 16.5535 -1.58075
15.7275 15.733 -1.55156
13.4302 14.6291 -1.59507
14.3807 14.7251 -1.44827
15.246 15.7853 -0.950443
16.0056 16.5418 -1.74099
15.1615 15.2881 -1.63793
15.7332 15.8018 -1.45469
14.5624 15.7452 -1.80812
15.5145 15.632 -1.51023
15.8358 15.8424 -2.11509
15.8925 15.9379 -2.18066
14.9454 15.1466 -1.45027
14.3837 14.628 -1.66798
15.8363 16.083 -1.20084
15.9044 16.264 -1.22869
14.9212 15.639 -1.41331
15.8608 16.578 -1.33644
14.3356 15.899 -1.93469
15.7025 16.0752 -1.32177
15.5929 15.7471 -1.35817
12.8808 14.827 -2.00442
15.4631 15.5892 -1.53871
14.5497 14.883 -1.48718
15.1219 16.5429 -1.79391
14.3804 16.1378 -1.92594
14.883 16.6249 -0.998119
13.3787 15.2363 -1.5029
15.7874 15.7509 -1.64885
14.8067 15.3707 -0.960812
14.4417 14.6864 -1.89525
14.0575 14.3332 -2.29644
13.5234 14.1782 -2.10511
13.3974 14.261 -1.83958
13.542 14.3574 -1.80357
14.4097 16.1051 -1.92868
15.8402 15.8374 -1.79253
15.1383 15.248 -1.93925
14.4534 16.0519 -1.92793
14.7915 14.9865 -1.6833
15.1801 15.2905 -1.59874
13.0398 14.683 -2.18807
14.4559 15.0925 -1.13062
15.0976 16.461 -0.961773
15.5165 15.5556 -1.84286
15.2673 16.1757 -0.925697
14.528 16.0937 -1.68391
15.3804 15.445 -1.64554
13.6465 14.1482 -2.08553
14.8888 15.0103 -1.77199
14.9639 15.5666 -1.41468
15.0017 15.5935 -1.11135
14.9855 16.2694 -1.86938
14.8556 15.7187 -1.443
13.3516 14.6026 -1.63292
14.6458 14.8833 -1.6991
15.8719 15.7806 -2.20699
14.9178 15.5233 -1.03186
13.0819 14.6018 -1.81208
14.7767 14.9456 -1.8962
15.8516 16.6145 -1.4011
15.7528 16.8746 -1.79876
16.0125 16.0531 -1.77977
15.7789 16.9247 -2.03684
15.8049 15.9776 -1.32704
15.3451 16.5909 -0.981865
15.2436 16.4926 -1.52968
13.4521 15.3072 -1.51149
15.4666 16.2127 -1.38062
14.5453 15.6912 -0.975616
15.1914 16.338 -1.84465
13.5591 15.8301 -1.42322
14.863 15.0753 -1.52858
14.6855 16.3886 -1.86646
15.6177 15.6766 -1.58842
15.8115 16.0899 -1.18708
14.4517 14.7155 -1.59336
14.391 15.9388 -0.997078
14.269 16.151 -1.02979
14.5131 14.7786 -1.68688
14.4129 14.6566 -2.09566
15.0998 15.1367 -1.62337
15.6665 15.7469 -1.63725
14.6362 16.0717 -1.44479
15.6875 16.0984 -0.998253
14.993 15.102 -1.7429
13.5981 14.1541 -2.00084
13.4985 15.6975 -1.47776
13.9508 15.712 -1.15075
13.8052 14.221 -1.85394
14.2717 14.6607 -1.9979
13.897 14.4066 -1.51347
13.868 15.9107 -1.1713
13.7506 14.4667 -1.52976
14.0268 14.7113 -1.42047
15.0083 16.5431 -1.63704
15.2638 15.6107 -1.053
14.692 14.9421 -1.54913
13.4787 14.6883 -1.54868
15.0051 15.149 -1.64622
15.4043 15.5154 -1.46174
14.9046 16.4042 -1.88587
15.4309 16.2901 -1.24878
15.8027 16.0357 -1.23897
15.4015 16.2951 -1.3937
14.2408 15.9463 -1.93049
15.9538 15.9323 -1.89911
15.5786 15.607 -1.83488
14.9367 15.2195 -1.44045
15.7847 15.8578 -1.45089
13.4973 14.2555 -1.80003
13.4053 15.3751 -1.51391
13.9075 14.2492 -2.03517
13.6716 14.165 -1.77579
14.913 15.0945 -2.07658
14.5172 14.7339 -1.47976
13.6482 14.2863 -1.69137
15.3857 16.3507 -1.40638
14.0457 14.3358 -2.25069
13.1571 14.5008 -2.18663
14.3537 14.7834 -1.33689
14.7537 14.9429 -1.85043
13.8487 14.5855 -1.49224
15.0556 15.593 -1.03888
14.089 15.285 -1.36394
15.56 15.6223 -2.0457
15.2276 16.434 -1.6269
15.3488 15.4161 -1.54929
13.8356 15.2931 -1.45677
14.5978 14.8268 -2.09518
14.5625 15.1407 -1.03965
13.5791 14.6253 -1.51068
12.9033 14.782 -2.10152
14.7439 15.2878 -1.04805
15.8873 16.2401 -1.18192
15.5491 15.7346 -1.37562
14.3474 15.4562 -1.83463
15.2374 15.2793 -1.74533
14.657 14.9156 -1.49441
14.6848 14.8685 -1.73753
15.4196 16.1996 -1.63451
14.5813 15.7972 -1.81227
15.1347 15.2411 -2.04659
15.9481 16.1946 -1.24256
15.797 16.2036 -1.00862
15.1235 15.2099 -2.04421
14.9784 16.1401 -1.80644
15.6481 16.9841 -1.64286
13.609 14.499 -1.54761
15.9387 16.023 -2.2312
14.8906 15.1502 -1.44183
15.1575 16.8051 -1.01089
14.4452 14.7351 -1.30384
14.4879 14.699 -1.6089
14.5269 14.7109 -1.7677
14.0864 14.4003 -1.698
15.545 15.6008 -1.99818
15.7031 15.7372 -1.99876
14.0514 14.5357 -1.56493
14.9458 15.5369 -0.956604
14.7863 14.9748 -2.00042
14.684 15.4066 -1.01185
13.8171 14.7966 -1.47757
14.2161 14.5634 -1.5174
15.6041 16.0559 -0.986359
15.5316 15.8966 -1.09679
15.2455 15.5113 -1.4324
13.6525 14.1839 -1.93617
13.3121 14.33 -2.22845
15.7886 15.7449 -2.14657
15.1373 15.5573 -1.09421
15.4879 16.173 -1.53062
14.5213 16.5527 -1.79365
13.5839 14.3085 -1.64669
15.0592 16.5276 -1.68964
16.0253 16.5801 -1.95087
15.5614 15.6029 -1.79358
16.0432 16.0531 -1.83215
16.0246 16.1517 -1.4183
15.4939 16.7383 -1.01159
15.7455 15.8 -1.49245
15.7026 15.856 -1.3386
15.0582 16.5411 -1.90491
16.1059 16.162 -1.44601
14.4413 15.5496 -1.84182
14.0348 14.3024 -2.2572
15.0177 15.1098 -1.79148
14.7053 14.9888 -1.54279
16.2509 16.1986 -1.84386
16.0349 15.9677 -1.87849
15.016 15.5186 -1.36261
15.3621 15.6012 -1.37608
15.9387 16.0231 -1.45581
14.3458 16.2379 -1.78075
15.8826 16.0753 -1.25728
14.8337 14.9672 -1.80276
14.484 14.7921 -1.49811
15.8098 15.758 -2.19661
15.7414 16.0519 -1.19161
15.7935 16.2282 -1.01918
14.964 15.1477 -1.58576
13.7785 14.1877 -1.94586
14.996 15.5351 -1.39282
14.9495 15.4611 -0.986176
13.701 15.9028 -1.30036
15.8397 16.275 -1.04485
14.2151 15.0034 -1.35791
13.5293 14.3876 -1.65348
15.254 15.5022 -1.3847
15.7267 15.8569 -1.35542
15.0605 15.2978 -1.43978
13.6326 15.8512 -1.35104
15.6334 17.0868 -1.95866
15.2111 16.5433 -1.53796
13.2744 14.3838 -2.0532
13.3381 15.6736 -1.54536
15.0716 15.1759 -2.07348
14.6669 14.87 -2.06179
12.9264 14.7764 -2.12554
14.7066 15.2834 -1.02877
14.7917 15.7973 -1.41003
14.2558 14.7706 -1.31902
15.038 15.1631 -2.04997
13.951 14.3502 -1.85162
14.7402 15.7357 -1.60275
14.5864 15.1369 -1.05768
13.6855 14.1458 -2.10518
15.5813 17.0454 -1.63857
15.8098 15.8207 -2.07724
14.4513 14.7018 -1.99464
13.4688 14.2709 -2.14247
14.8875 15.649 -1.5468
14.3068 14.5483 -2.05219
14.9123 15.1086 -1.64024
13.5927 14.3954 -1.58627
14.2957 14.7729 -1.38944
14.7053 15.7865 -1.50219
13.679 14.1511 -2.18302
14.5845 14.8524 -1.45485
14.4878 14.7663 -1.54264
14.8468 16.6892 -1.01254
14.4508 14.6992 -1.94128
14.4088 16.1039 -1.80086
14.2992 14.752 -2.30621
15.5136 17.1643 -1.77485
14.6028 15.74 -1.78995
14.931 15.0814 -2.07885
15.1905 15.6084 -1.09449
13.8412 15.99 -1.19913
15.4302 15.4117 -1.75749
14.5954 14.8816 -1.54304
14.9625 15.5358 -0.971283
14.2655 16.2076 -1.84794
14.4835 14.7409 -1.61295
13.1199 14.5193 -1.89456
14.3587 14.6849 -1.69461
13.8529 14.2924 -1.99971
14.9348 16.2761 -1.86066
14.8685 15.0549 -1.59338
16.112 16.2328 -2.04186
14.6819 14.9879 -1.46922
15.2206 15.3479 -1.5476
14.3124 14.6837 -1.491
13.1562 14.7331 -1.68212
15.4085 15.6292 -1.44207
12.9584 14.7494 -2.23528
14.827 15.3131 -1.06261
15.4388 15.8527 -1.04754
16.0161 16.0948 -1.83636
13.9072 14.2773 -1.731
14.2597 14.5782 -1.92863
14.2095 15.9084 -1.06045
15.1949 15.2935 -1.90548
13.5844 14.1791 -1.98259
14.226 14.7323 -1.38734
14.2858 14.5466 -1.74587
14.6294 14.8059 -1.8238
14.1469 14.4588 -1.60656
15.5332 16.1794 -1.2822
15.056 15.6444 -0.956177
16.0058 16.1374 -1.39238
15.7094 15.814 -1.90408
15.7769 15.7155 -2.09211
15.826 16.1859 -1.01667
15.707 16.7707 -1.37132
15.588 15.6167 -1.88474
14.8054 15.3017 -1.00513
14.8253 15.0207 -1.66554
15.3584 15.7024 -1.17934
14.646 15.6993 -1.79126
14.6889 14.9667 -1.4897
14.9787 15.4506 -1.47719
15.0111 15.6326 -1.18308
15.3826 15.5399 -1.45265
15.1679 15.7542 -0.941135
15.2803 16.4386 -1.52357
13.5723 15.7997 -1.42502
12.8384 14.925 -2.13998
15.307 15.7964 -0.956341
16.2309 16.1633 -1.98908
13.9673 16.1465 -1.86188
15.6652 15.722 -1.607
15.2078 15.6606 -1.03542
13.5529 15.8072 -1.4011
13.2393 14.8835 -1.58628
16.0556 16.1922 -1.433
15.793 16.8139 -1.64916
14.8966 15.1352 -1.49202
15.4041 15.5004 -1.69358
15.8517 15.7777 -2.24314
15.0653 16.4714 -1.8297
15.2611 15.5654 -1.33128
14.5765 14.7974 -1.71738
16.0855 16.2375 -1.43277
14.4123 15.031 -1.16726
14.5673 14.7878 -1.89871
15.8168 16.6137 -1.34311
13.8095 15.8612 -1.22908
13.6512 15.8585 -1.37792
14.8029 14.9788 -2.09146
16.0903 16.1494 -1.95182
16.0092 16.0945 -1.48104
14.1307 14.421 -2.19655
14.1741 15.136 -1.42393
15.0864 15.4883 -1.42419
16.1276 15.9999 -2.09886
15.077 16.1879 -1.83567
14.9475 15.6033 -1.42637
14.7592 15.3611 -0.958527
15.8901 15.8881 -1.8969
13.9517 14.4516 -1.50158
14.762 15.2889 -1.09448
14.8696 15.5953 -1.63311
14.3134 16.0668 -1.01128
14.9087 15.0855 -2.03962
15.2031 16.2798 -0.93578
14.7632 14.944 -1.88804
16.1668 16.3931 -1.9417
13.9824 14.6252 -1.41407
13.4207 15.225 -1.5431
15.4085 15.4799 -1.91573
14.2297 15.8829 -1.0616
15.9365 16.7331 -1.80818
14.2446 16.1489 -1.95626
15.8651 16.7369 -1.69392
13.0721 14.6561 -2.20534
13.731 14.4766 -1.51432
14.067 15.1155 -1.42282
13.2558 14.8626 -1.58796
15.1176 15.2203 -1.89837
14.1926 14.4439 -2.2952
14.4035 14.8747 -1.34326
15.7885 15.7679 -1.87845
15.4962 15.5369 -1.69038
14.0307 14.3473 -2.19833
15.3826 16.5768 -0.978329
15.1519 15.2849 -2.04248
15.6175 15.6247 -1.69826
14.5363 15.8855 -1.80117
15.249 15.9111 -0.935455
14.6869 14.8883 -1.98835
15.7368 15.7133 -1.68911
14.0983 14.3918 -2.20337
15.0455 15.1362 -1.54295
15.6427 15.678 -1.85142
14.7469 15.0296 -1.53058
14.7995 15.1543 -2.27486
15.4722 16.2024 -1.36559
14.8784 15.7271 -1.37647
14.9804 15.1211 -1.75369
15.2297 15.4872 -1.2996
15.2848 16.5116 -1.42784
14.1336 14.4868 -1.6232
15.3096 15.7592 -1.02719
14.3745 15.783 -0.989834
14.7058 15.0361 -1.43942
13.6958 14.2584 -1.66035
15.1576 15.3409 -1.49087
13.3034 14.7929 -1.58413
15.6517 15.6855 -1.68635
15.8346 16.4047 -1.14745
13.7101 14.3202 -2.30097
14.3098 14.7071 -1.98526
15.196 15.7303 -0.958042
14.306 14.6453 -1.58433
15.7195 16.1401 -1.19693
16.0029 16.5345 -1.69566
13.9687 14.2765 -2.18271
14.4994 14.7776 -1.96661
15.5034 16.1393 -1.50844
14.2769 16.1421 -1.9767
14.5138 14.7564 -1.98987
14.3195 14.6041 -2.01181
14.7574 14.9402 -1.9452
14.2452 16.093 -1.94864
15.8442 15.7904 -2.29297
15.5703 16.9802 -1.515
14.2799 14.5161 -2.07362
15.5718 15.6761 -1.74297
13.466 14.2666 -1.76882
13.756 14.2766 -2.27188
14.7911 14.9517 -2.03908
15.9839 16.1905 -1.29537
15.0576 15.2407 -1.53643
13.8594 14.3421 -1.93496
15.4691 15.5211 -1.72328
15.4834 15.9023 -0.989967
15.4547 16.2039 -1.52917
15.9134 15.825 -2.30337
14.9115 16.3873 -1.83795
14.1536 14.4641 -2.05191
14.6405 16.5243 -1.87593
14.4429 14.6912 -2.0567
15.0508 16.5322 -0.964767
14.3573 15.1412 -1.54992
14.7846 14.9551 -1.94734
14.5443 14.6833 -1.35012
13.1416 15.0014 -1.6625
13.5368 14.9612 -1.52502
14.8669 15.381 -1.07161
15.8882 15.8986 -1.49675
14.1698 14.5575 -2.06839
15.5295 16.3408 -1.26685
13.5371 15.792 -1.47305
14.1809 14.4272 -2.35493
14.014 14.3612 -2.19393
14.3467 14.8932 -1.24532
15.7436 15.7474 -1.89794
13.6739 14.3752 -1.6736
15.6901 15.8806 -1.34259
14.4782 14.6893 -1.862
13.9911 16.1551 -1.89919
15.1952 15.2685 -1.79986
15.3892 16.237 -1.63364
14.0959 14.6562 -1.41319
15.61 16.153 -1.30622
14.4851 15.8039 -1.88707
15.1803 15.2768 -2.04573
14.5466 14.8304 -1.54699
14.1945 14.4869 -2.13768
16.2359 16.1925 -1.804
14.7211 14.9242 -1.60745
15.3546 16.6375 -0.969894
13.3248 14.9245 -1.56115
14.8432 16.2088 -1.85098
14.1806 15.9706 -1.91214
13.8445 14.2874 -1.68771
13.7111 15.917 -1.33257
14.3988 15.9449 -1.92936
14.5985 14.8286 -1.70275
14.3664 14.6241 -1.79812
14.114 14.5195 -1.99512
15.8898 16.1334 -1.19823
14.7064 14.91 -1.94825
15.7314 16.0895 -1.05138
13.7002 15.9267 -1.33043
15.0856 17.0238 -1.34167
15.9137 16.4455 -1.31147
15.8987 16.4698 -1.31998
15.9964 16.095 -1.394
15.3954 15.8915 -0.956882
14.4932 14.7438 -1.69614
14.6443 14.8339 -1.89574
13.8416 14.2545 -1.70298
14.9327 16.0605 -1.81373
14.9997 15.626 -1.15623
15.783 16.7459 -1.35485
15.4453 15.4915 -1.80149
13.636 15.1351 -1.45173
14.7265 14.8926 -1.90793
14.3584 14.9342 -1.20871
15.1638 15.5081 -1.23264
14.318 14.5724 -2.16077
14.5855 15.2373 -1.01314
15.8044 15.8081 -1.58297
15.2607 15.7515 -0.933884
14.3421 15.7769 -1.85956
14.91 15.1561 -1.39928
15.6001 16.8711 -1.31614
15.7628 16.8282 -1.64932
15.2985 15.3821 -1.99636
14.1778 14.7579 -1.37217
13.0064 15.0986 -1.67465
16.0537 16.0301 -1.62888
15.6863 15.8571 -1.29861
15.2659 15.3617 -1.50215
15.5886 17.0214 -1.60107
14.0349 16.164 -1.76469
14.6599 15.5107 -0.962917
15.8745 16.0079 -1.30396
14.4414 14.7113 -1.38905
14.5689 16.0598 -1.56412
15.7984 15.848 -1.54232
14.5756 15.6962 -1.85902
14.8522 15.616 -1.63087
15.3832 15.6407 -1.41969
15.3907 15.8531 -0.955666
15.9805 15.9848 -2.02956
14.4024 15.536 -1.83648
15.6155 17.0586 -1.83331
15.6009 16.0472 -0.948997
15.6651 16.0767 -1.26559
15.0503 16.4747 -1.89083
15.658 15.6782 -1.90675
14.1464 14.477 -2.05057
14.9294 15.1046 -1.54178
14.6388 15.2941 -1.03338
15.1001 15.2046 -1.69897
14.1451 15.9931 -1.06067
14.6996 14.8899 -2.09689
13.3561 15.6091 -1.52296
15.6547 16.0392 -1.34346
12.9125 14.7482 -1.89833
15.1716 15.2678 -1.57176
16.2177 16.3157 -1.83627
14.3352 15.1234 -1.5051
14.7948 16.2845 -1.86562
15.1205 15.2469 -1.61517
14.012 15.3797 -1.43999
14.2603 15.8142 -1.88951
14.8508 15.028 -2.00484
15.0576 15.5253 -1.43983
13.0978 14.5656 -2.16207
12.8385 15.0874 -1.85349
14.4982 16.2403 -1.60187
13.8405 14.3101 -1.60558
14.5168 15.291 -1.54126
14.9509 15.5112 -1.49854
15.307 15.3835 -1.68495
13.9935 14.3564 -1.64073
13.5887 15.1758 -1.49575
15.6543 16.1119 -0.965958
14.4795 16.074 -1.78935
14.7965 15.6805 -1.64341
14.0128 15.1777 -1.41053
15.3995 15.9828 -0.925472
13.4532 14.4643 -1.62899
14.5948 15.4782 -0.99041
14.9699 16.3004 -0.957687
15.4173 15.5475 -1.58567
14.9352 15.4048 -1.0477
14.0437 15.3986 -1.48634
14.3016 14.615 -1.53321
14.683 15.2068 -1.04886
15.8171 15.9105 -1.42461
14.4035 15.5777 -1.82922
14.8441 16.1293 -1.85096
15.1756 15.2564 -1.85388
15.2763 15.3684 -1.5506
14.4524 14.7343 -1.65163
14.2681 14.6368 -1.92995
13.6777 14.1852 -1.80579
13.3988 15.4716 -1.50961
14.6467 14.9467 -1.45493
13.8986 14.3505 -1.60315
16.0382 15.9991 -1.64972
13.1166 14.5519 -1.79269
15.1102 17.0136 -1.34106
13.5441 14.1967 -1.79854
14.9315 16.571 -1.69529
14.9272 15.6423 -1.43523
15.487 15.5405 -1.60522
14.6473 15.7971 -1.5977
15.0345 15.5857 -0.997177
13.7922 14.2674 -1.64207
14.1638 14.497 -2.23095
14.6366 14.9508 -1.41399
15.7803 16.0876 -1.11961
15.2757 16.8392 -1.02179
14.0591 15.3305 -1.38658
15.903 15.9204 -1.76687
13.743 14.8462 -1.46066
14.7993 16.6906 -1.02349
15.5471 15.9396 -1.03514
14.4938 16.1409 -1.68648
15.8768 15.9393 -1.35315
15.7249 15.7795 -1.58148
15.8045 16.0705 -1.24818
15.2617 15.4393 -1.47094
15.2925 16.4845 -0.952972
13.7939 14.3247 -1.62938
15.2997 16.3356 -1.60711
15.5633 15.7175 -1.30922
14.9197 15.0509 -1.68738
13.6388 14.6899 -1.5112
15.648 16.688 -1.70988
15.0956 16.513 -1.78616
15.8303 15.8866 -2.01613
15.8453 16.411 -1.17052
14.654 16.0564 -1.45425
14.1674 16.2118 -1.93043
15.8856 15.8518 -1.60171
14.5131 15.1909 -1.07412
13.6913 14.167 -1.93988
14.0489 14.5483 -1.41568
16.1798 16.1 -1.73071
14.3483 14.706 -1.39672
15.3515 15.4401 -1.6464
14.709 15.0737 -1.46149
15.0497 15.5614 -0.966797
15.4928 15.5303 -1.98944
15.5869 15.6599 -2.10797
15.4332 15.7906 -1.10021
15.0204 15.4435 -1.42641
14.0387 16.0478 -1.86876
14.3991 14.6534 -2.14223
15.5645 15.7126 -1.35319
15.8489 16.183 -1.13928
14.0518 15.2307 -1.51337
16.187 16.0865 -1.71452
15.6875 15.8008 -1.36063
15.8958 15.7966 -2.24424
16.1332 16.2874 -1.5939
12.9423 14.7411 -1.98189
15.6835 15.6761 -1.98124
13.4818 14.2214 -1.9128
13.5192 15.8262 -1.37945
14.0848 16.0211 -1.92184
14.5889 14.7872 -1.83472
14.7045 14.9882 -1.58601
16.0777 15.9363 -2.2492
14.322 14.6693 -2.08019
15.1066 15.4247 -1.39571
14.8142 15.1186 -1.41761
14.9654 15.133 -1.74651
13.825 14.2094 -1.86839
15.5102 15.7383 -1.43627
15.1953 15.4919 -1.25182
13.8458 14.2551 -2.10888
15.9815 15.9904 -2.00504
13.7307 14.1622 -1.8536
16.023 15.9684 -2.07497
15.5189 15.6107 -1.98754
13.9984 15.2876 -1.42771
15.9029 15.8724 -1.841
15.0453 16.6064 -1.56612
14.386 14.608 -1.79572
15.7048 15.7589 -1.55839
15.0849 15.576 -1.38323
14.4236 14.8722 -1.22934
14.3535 14.689 -2.02595
15.8838 16.4953 -1.33023
13.7916 14.1816 -2.14139
13.8035 16.039 -1.19655
15.5316 15.5676 -1.61786
15.8586 16.8344 -1.841
14.136 14.446 -1.85195
15.2918 15.6462 -1.14301
15.7034 15.6935 -1.79129
15.8658 15.9583 -1.38913
13.905 16.1607 -1.59871
13.1911 14.6859 -1.67864
15.2084 15.3048 -1.8436
13.6228 15.9065 -1.30999
15.0394 16.4388 -1.79036
14.5445 14.7943 -1.64171
13.9275 14.2803 -1.75921
15.3432 15.4795 -1.48083
14.4456 15.8448 -0.983444
15.8394 15.8143 -1.84156
14.1918 15.8483 -1.89444
14.2848 14.5246 -2.24863
15.1591 15.7738 -0.951759
13.6387 15.8033 -1.37051
15.2907 15.9887 -0.926075
14.2291 14.5892 -1.50049
14.7021 15.4532 -0.966667
14.9461 15.0929 -1.95967
13.9113 14.5048 -1.48135
15.573 17.1509 -2.07378
14.8319 15.7218 -1.54349
13.4955 14.3452 -1.84312
15.3197 16.0991 -0.925426
16.003 15.9191 -2.174
14.1919 14.7064 -2.26685
13.9764 14.3152 -2.04519
14.0355 14.5788 -1.43379
14.2715 16.2408 -1.82383
14.4057 14.9693 -1.14687
13.5872 14.3279 -1.6089
14.6468 14.8169 -1.75287
16.2173 16.1697 -1.91713
15.0546 15.1858 -1.98613
15.3869 16.5469 -0.95311
15.1968 16.8626 -1.02918
15.2398 16.8418 -1.0188
15.4643 16.5567 -1.00125
15.5213 15.5755 -1.61914
15.5029 16.7422 -1.0321
15.6084 16.5967 -0.994709
15.5248 16.7366 -1.04125
15.3749 16.8313 -1.13455
15.0528 17.0531 -1.38579
15.0853 17.0441 -1.39789
15.2287 17.2672 -1.5544
15.2297 17.2706 -1.56512
15.5896 16.9308 -1.40532
15.2611 17.2634 -1.58662
15.5668 16.9458 -1.40723
15.2127 17.318 -1.67323
15.2031 17.3306 -1.69529
15.5928 16.9406 -1.4445
15.2332 17.3158 -1.69492
14.6037 15.1138 -1.04453
15.5899 16.9582 -1.48041
15.2984 17.2751 -1.67
15.5674 16.9813 -1.49682
15.329 17.2617 -1.67471
15.8077 16.7172 -1.34336
15.5675 16.9861 -1.5291
15.3751 17.2368 -1.66857
15.591 16.9827 -1.55281
15.3826 17.2433 -1.69791
15.8834 16.589 -1.33205
15.6117 16.9669 -1.53411
15.7156 16.7967 -1.46844
15.622 16.9675 -1.55131
15.9378 16.4785 -1.33298
15.6172 16.979 -1.58012
15.4321 17.2344 -1.74384
15.8716 16.6117 -1.39469
15.7531 16.7901 -1.50299
15.6344 16.976 -1.59659
15.8413 16.6384 -1.44246
15.7747 16.7812 -1.50607
15.6718 16.9714 -1.63913
15.6441 17.0042 -1.70116
15.7906 16.8016 -1.6018
15.4882 17.2552 -1.89154
15.5801 17.0725 -1.82173
15.4714 17.2732 -1.92006
15.5608 17.0938 -1.8605
15.7837 16.8327 -1.70053
15.646 17.048 -1.84869
15.7775 16.85 -1.75223
15.7668 16.8572 -1.76003
15.5403 15.6067 -1.49395
15.7099 17.0153 -1.84633
15.7923 16.8512 -1.80467
15.7041 17.0243 -1.86674
15.6642 17.059 -1.91668
15.6273 17.0981 -1.98679
15.8661 16.708 -1.75191
15.7713 16.8795 -1.84966
15.807 16.8567 -1.8295
15.8435 16.7332 -1.81139
16.0332 16.4915 -1.64656
15.7505 16.9287 -1.99726
15.8983 16.6127 -1.82352
15.8819 16.7469 -1.94562
14.6379 14.8385 -2.09167
15.9043 16.7463 -1.99046
16.0812 16.5314 -1.84023
16.0226 16.5949 -2.02057
15.299 15.4944 -1.44202
16.1392 16.4263 -1.92153
16.1709 16.4095 -1.91019
13.287 14.8242 -1.59243
15.4652 15.5743 -1.61891
14.9979 15.5964 -0.952194
13.3639 15.2418 -1.52959
13.611 14.2147 -1.74606
15.3861 15.7336 -1.0947
14.4404 16.0568 -1.91554
15.9863 15.9445 -1.59734
15.711 16.16 -0.986938
13.1324 14.5351 -2.19021
15.0442 15.1613 -1.99464
15.7428 16.2928 -1.0308
14.4204 14.6478 -2.00887
16.0646 16.0184 -1.8139
13.9476 14.2868 -1.94322
13.9303 14.2875 -1.91384
15.7623 15.8577 -1.43606
16.042 16.1386 -1.44677
14.5055 15.0708 -1.43901
14.5143 14.7709 -1.76193
13.5311 14.3783 -1.81739
13.9425 14.3401 -1.68705
13.6815 15.9225 -1.30219
15.7118 16.148 -1.19356
15.0293 15.1679 -1.51633
15.1835 16.4977 -1.63606
15.4601 15.5025 -1.8537
15.047 16.5052 -1.69445
14.2487 14.763 -1.33415
14.6304 15.1354 -1.1373
15.2227 16.3719 -1.73659
13.8707 14.2285 -2.11427
14.5471 16.2646 -1.0013
14.6029 16.4514 -1.00183
14.6447 16.4388 -1.00293
14.7346 16.2878 -0.996174
14.555 14.7793 -1.74355
14.8065 16.5777 -1.02437
14.8478 16.6686 -1.03337
14.9253 16.6126 -1.00262
14.9775 16.6981 -1.01729
14.9574 16.8331 -1.04052
15.0503 16.7622 -1.02631
15.3512 15.8019 -0.99168
15.354 15.8356 -1.00199
15.3862 15.8474 -0.996689
14.6932 16.0506 -1.46332
15.4492 15.9474 -0.95105
15.2193 16.895 -1.04561
14.6908 16.0705 -1.48675
15.4068 15.8838 -0.99334
15.4393 15.889 -1.00141
14.7129 16.1634 -1.48935
15.4941 15.9435 -0.955395
15.4978 16.026 -0.955677
15.2468 17.0115 -1.08183
15.5185 16.0027 -0.9501
15.2828 16.9907 -1.09197
15.5424 15.9991 -0.958912
15.3977 16.6503 -1.01579
15.312 16.9546 -1.06342
15.4047 16.6518 -1.02866
15.452 15.9041 -1.03326
15.4911 15.8919 -1.03605
14.4536 16.4651 -1.7903
15.5003 15.9384 -1.03697
14.5008 16.5599 -1.78773
15.5891 15.9846 -0.996117
15.6067 16.1356 -0.987186
15.558 16.6387 -1.00333
14.4745 16.4724 -1.84396
15.5776 16.4379 -1.00527
15.9253 15.8846 -1.96207
14.4909 16.5775 -1.8296
15.6351 16.0468 -1.00708
15.5942 16.0006 -1.0439
15.6758 16.0851 -0.955521
15.6197 16.3968 -0.993912
14.466 16.486 -1.87768
14.4782 16.4866 -1.89745
15.6952 16.2506 -0.97451
15.6662 16.1924 -1.00198
15.662 16.5661 -1.00497
15.6463 16.0549 -1.04566
14.5805 16.5513 -1.8747
15.7466 16.2359 -0.992786
14.5962 16.4296 -1.87484
14.6062 16.5376 -1.86818
14.646 16.4048 -1.86321
14.6328 16.5239 -1.86261
15.6839 16.0323 -1.04783
14.6886 16.4996 -1.86672
15.7464 16.2005 -1.00992
14.7053 16.498 -1.88735
14.7485 16.2505 -1.85802
14.7264 16.4832 -1.87014
14.7884 16.5526 -1.82304
15.7608 16.1593 -1.04522
15.7887 16.1964 -1.04158
14.7362 16.3677 -1.87164
14.7606 16.3553 -1.86549
14.7501 16.4787 -1.89246
14.9827 16.4925 -1.70156
15.7502 16.0938 -1.09354
14.7984 16.2291 -1.85621
14.774 16.3502 -1.86831
14.7966 16.342 -1.87546
14.797 16.4553 -1.88716
14.9681 16.4392 -1.74142
15.7284 16.028 -1.10742
14.8074 16.1477 -1.8576
15.6828 16.0695 -1.15597
15.7985 16.157 -1.09377
15.8234 16.2025 -1.05431
14.8946 16.0763 -1.8151
14.8443 16.338 -1.8792
14.8688 16.4103 -1.84795
15.0056 16.4381 -1.75148
15.7006 16.06 -1.15695
15.8443 16.2543 -1.05299
14.8616 16.3127 -1.87408
15.7369 16.039 -1.14758
15.8722 16.257 -1.05344
15.7884 16.0903 -1.14701
14.1055 16.1105 -1.93583
15.8524 16.1972 -1.10287
15.854 16.2808 -1.08132
15.5941 16.899 -1.36287
14.993 16.1363 -1.82736
15.0015 16.2445 -1.84982
14.9919 16.3915 -1.88239
15.0371 16.4465 -1.84546
15.877 16.2 -1.11589
14.9953 16.3676 -1.88527
15.8873 16.1925 -1.13884
15.0381 16.2246 -1.85289
15.0488 16.3463 -1.87865
15.013 16.4448 -1.89568
15.6511 16.0522 -1.31442
15.7805 16.0403 -1.20856
15.0354 16.4493 -1.88745
15.0937 16.4388 -1.89707
15.7141 15.9342 -1.29871
15.7472 16.7813 -1.36015
15.5926 15.7069 -1.39919
15.621 15.7537 -1.36369
15.6918 16.0475 -1.33938
15.8488 16.0916 -1.24733
15.9294 16.173 -1.15343
15.6562 15.8246 -1.36763
15.6075 15.7428 -1.38845
15.798 15.9574 -1.2623
15.7437 15.9259 -1.33381
15.7851 15.9774 -1.29569
15.8097 15.96 -1.29349
15.5907 15.6952 -1.43979
15.9553 16.1671 -1.18236
15.8386 16.026 -1.29473
15.9057 16.1483 -1.24068
15.8749 16.5574 -1.31429
15.6927 15.8009 -1.39386
15.657 15.7522 -1.4399
15.8689 16.0865 -1.27894
15.9267 16.1285 -1.24544
15.854 16.0147 -1.28699
15.9339 16.116 -1.23673
15.8905 16.0866 -1.30043
15.8419 16.6222 -1.40231
15.8444 15.9552 -1.34365
15.9148 16.1425 -1.27746
15.8031 15.9117 -1.39437
15.8552 16.0254 -1.32426
15.9418 16.1434 -1.29779
15.4967 17.2069 -1.83495
15.7454 15.8735 -1.42654
15.6882 15.7504 -1.45834
15.6927 15.8252 -1.44682
15.8924 16.0108 -1.34866
15.9642 16.2032 -1.29393
15.9592 16.3966 -1.31187
15.7057 15.8054 -1.43397
15.8503 16.6574 -1.49321
15.6684 15.7591 -1.49342
15.7721 15.8508 -1.41403
15.6959 15.7478 -1.49877
15.8791 16.6319 -1.48453
15.9029 16.0157 -1.38535
15.8816 15.9523 -1.40502
15.9984 16.2001 -1.34781
15.8687 16.6584 -1.52559
15.8456 15.9065 -1.45028
15.8947 16.6493 -1.54915
15.9911 16.2866 -1.36626
15.9849 16.1365 -1.35774
15.9316 16.006 -1.40418
15.899 15.9568 -1.45183
15.9894 16.184 -1.38061
16.0131 16.298 -1.39388
15.9011 16.6649 -1.59454
15.9804 16.252 -1.45587
15.9941 16.3288 -1.44043
15.9531 16.0063 -1.4446
16.0233 16.3007 -1.41932
15.8978 16.683 -1.62933
15.9854 16.0777 -1.44085
16.0179 16.3123 -1.43919
16.0001 16.0627 -1.43575
15.7516 15.7522 -1.59441
15.8152 16.8102 -1.77241
15.9333 15.9479 -1.49513
16.012 16.1353 -1.43918
15.9988 16.2498 -1.48426
15.7399 15.7464 -1.64985
15.9555 16.0269 -1.49449
15.874 15.8357 -1.54757
15.9016 15.9062 -1.54733
15.9601 16.0134 -1.49554
16.0077 16.0582 -1.49197
16.0525 16.1125 -1.4515
15.9881 16.0084 -1.49949
16.0318 16.3318 -1.51473
15.8601 15.8528 -1.59136
15.8584 16.8071 -1.83942
15.9521 15.9557 -1.54533
16.0349 16.4566 -1.58736
15.8743 16.7821 -1.81069
15.7422 15.7374 -1.69434
16.063 16.3145 -1.52826
15.9991 16.0081 -1.5464
15.9046 15.8908 -1.59282
15.892 16.7797 -1.83584
16.0167 16.076 -1.53625
16.0533 16.1412 -1.53974
16.0933 16.2939 -1.54334
15.7978 15.7454 -1.69445
15.9352 15.8943 -1.59531
16.0434 16.0608 -1.5434
16.1262 16.154 -1.46323
15.9218 16.7528 -1.82709
15.8947 15.8485 -1.64684
15.9736 15.9443 -1.55855
16.1259 16.166 -1.49665
15.7719 15.7534 -1.73817
16.1049 16.3124 -1.59489
16.1344 16.1749 -1.53888
15.927 15.8161 -1.63279
16.0938 16.1304 -1.59055
15.7976 15.8319 -1.79898
15.8886 15.8517 -1.69955
16.0789 16.0411 -1.55509
16.0444 16.0067 -1.59758
15.999 15.938 -1.64169
15.851 15.8831 -1.78625
16.0907 16.0451 -1.5948
15.5629 15.8243 -2.07233
15.8885 15.888 -1.75115
16.1492 16.1781 -1.57812
15.4048 15.9352 -2.28628
15.839 15.8178 -1.80259
15.8885 15.8911 -1.78954
15.9411 15.9348 -1.75011
15.9951 15.9432 -1.69201
16.0998 16.0887 -1.63674
16.0893 16.0506 -1.65425
16.1274 16.114 -1.6112
15.7955 15.7842 -1.89425
16.0366 15.95 -1.68759
16.1107 16.1381 -1.65027
16.1868 16.1543 -1.58691
16.0489 15.9922 -1.69028
16.1395 16.1087 -1.62093
16.1579 16.1868 -1.64483
16.1131 16.4766 -1.78115
15.9547 15.9352 -1.78125
15.9963 15.9694 -1.73837
16.1319 16.1264 -1.65966
15.9917 15.9789 -1.78751
15.8564 15.8255 -1.8398
15.9008 15.8632 -1.83516
15.9506 15.9138 -1.79563
15.5557 15.8471 -2.20646
15.7977 15.775 -1.94339
16.0945 16.0041 -1.69663
16.098 16.0491 -1.69214
16.1552 16.218 -1.70559
15.9746 15.9097 -1.80229
16.088 16.0914 -1.74553
16.1972 16.1706 -1.65598
15.8329 15.83 -1.9486
15.9566 15.9283 -1.85096
16.0588 16.0255 -1.7653
16.139 16.0457 -1.70684
15.7386 15.7349 -2.00259
16.0461 16.043 -1.81412
16.213 16.2691 -1.70021
15.8018 15.7842 -1.99881
15.7489 15.9156 -2.0882
15.8599 15.9229 -1.96916
16.0104 15.9821 -1.8265
16.2136 16.2737 -1.71404
15.7451 15.7407 -2.04519
15.7448 15.9216 -2.10896
16.1577 16.1323 -1.73498
15.7617 15.716 -2.0313
15.8957 15.9052 -1.97793
16.2247 16.2794 -1.75204
15.8477 15.849 -2.03741
16.134 16.0397 -1.75259
16.2099 16.1846 -1.72426
16.2186 16.2848 -1.75396
15.8069 15.789 -2.04326
16.0836 16.0263 -1.84344
15.77 15.7146 -2.05424
16.2221 16.1797 -1.73568
15.7678 15.7184 -2.0761
15.9471 15.9876 -1.99477
16.1487 16.0493 -1.78569
16.0358 15.9829 -1.90406
16.2209 16.3047 -1.81304
15.8124 15.7917 -2.08878
15.9303 15.8902 -1.99494
15.8824 15.8471 -2.05323
16.0505 15.9954 -1.94579
15.7807 15.7177 -2.1268
15.9422 15.9039 -2.04486
15.8198 15.7869 -2.1183
15.9978 15.9499 -2.00639
15.8245 15.7882 -2.14626
16.1099 16.0364 -1.93636
16.1083 16.1472 -1.98789
15.7372 15.7562 -2.24966
15.8274 15.889 -2.19776
15.9457 15.905 -2.09412
15.8379 15.8406 -2.1584
15.9024 15.8513 -2.13708
15.8528 15.7849 -2.19115
16.111 16.1601 -2.04042
15.9434 15.8889 -2.13145
16.0471 15.987 -2.04757
