-2.07632 -4.55652 -1.30443
-1.20938 -3.77255 -2.19764
-2.64639 -5.60403 -0.851963
-2.60823 -4.93573 -1.4809
-1.66447 -4.23627 -2.07649
-1.60741 -5.8483 -2.0342
-2.32182 -6.55011 -0.853477
-2.0565 -4.63446 -0.924423
-1.17534 -4.85892 -1.59597
-1.46727 -4.04825 -1.89722
-2.16096 -4.57303 -1.45948
-1.53719 -4.26733 -0.915031
-2.00491 -4.46085 -1.4367
-2.6162 -5.84586 -0.835823
-1.53181 -4.936 -0.840561
-1.96347 -5.40671 -0.94059
-1.70499 -5.15866 -0.823635
-2.16277 -5.21179 -1.61674
-1.1275 -4.52155 -1.6539
-1.50838 -5.388 -0.828804
-2.16035 -4.5119 -1.79451
-1.75284 -4.19562 -2.0439
-1.31943 -4.88107 -0.84491
-2.12595 -5.0661 -0.870914
-1.46516 -4.01724 -2.28435
-1.36346 -4.97073 -0.843899
-1.52507 -4.11981 -1.71373
-2.19914 -4.73813 -1.02653
-0.748871 -4.70221 -1.70486
-2.08813 -5.3067 -0.928692
-1.52663 -4.20261 -0.988731
-2.0318 -4.42294 -2.26552
-2.47974 -4.96152 -1.0918
-2.74252 -5.08496 -1.37841
-2.03609 -5.01382 -0.818459
-3.00026 -5.15033 -2.53806
-1.86456 -5.70905 -0.820374
-2.17131 -4.7514 -0.897545
-2.08553 -4.57013 -1.18828
-2.05653 -5.41312 -0.817036
-1.68515 -4.12756 -1.75005
-0.799255 -5.05856 -1.64743
-2.13506 -4.51843 -1.74308
-2.30357 -4.80594 -1.132
-2.545 -4.92386 -1.30906
-1.02841 -5.12958 -1.59055
-1.66202 -4.67377 -0.849125
-1.54036 -5.88141 -1.51678
-1.45409 -5.66022 -0.833416
-2.09293 -4.60373 -1.39634
-1.89081 -5.59329 -2.0968
-2.51698 -4.858 -2.19463
-3.00105 -5.28137 -1.48157
-2.14079 -5.28543 -0.813278
-2.72391 -5.05774 -1.44551
-1.5912 -4.13712 -1.73569
-2.52803 -5.25641 -0.868195
-1.68983 -5.84497 -2.12397
-1.59923 -5.84909 -1.66116
-1.40164 -5.35593 -0.836376
-2.36551 -4.78088 -2.26332
-1.87578 -4.3078 -1.59975
-2.35405 -5.38745 -0.815315
-2.09779 -5.04694 -0.832478
-2.46719 -4.84335 -1.38573
-2.20674 -4.56448 -2.28715
-1.57686 -4.08859 -2.21836
-2.86201 -5.31717 -0.949509
-1.92128 -5.64877 -0.873199
-1.9429 -4.74838 -0.828102
-1.96072 -5.46906 -1.76968
-2.76843 -5.13116 -1.28159
-1.92548 -5.50977 -1.77379
-1.8978 -4.33661 -1.54205
-2.90408 -5.26801 -1.19566
-2.7942 -6.00653 -0.817207
-2.42079 -5.61075 -0.812263
-1.15199 -3.71695 -2.30904
-2.10204 -4.50607 -1.64048
-2.88477 -5.22391 -1.27203
-1.27625 -4.66949 -1.60405
-2.37465 -4.80621 -1.49891
-2.93469 -5.327 -1.08772
-1.8752 -4.56677 -0.854988
-1.83177 -5.43887 -0.87553
-2.04697 -5.25143 -1.13858
-1.5927 -4.07126 -1.64716
-2.01123 -5.42844 -2.09512
-2.7039 -5.06805 -2.13805
-3.09834 -5.39175 -1.33434
-1.29129 -4.78275 -0.840714
-2.29924 -4.7435 -1.39335
-2.55299 -5.16318 -0.816601
-1.20885 -3.72443 -1.96193
-2.05336 -4.48932 -2.04347
-2.41161 -5.26947 -0.824295
-2.37737 -5.5202 -0.809525
-2.20076 -5.07016 -1.16719
-2.0139 -6.00037 -0.832203
-2.60622 -5.16391 -0.855755
-2.72749 -5.01019 -1.66556
-2.01593 -4.41855 -2.0024
-2.85069 -5.16891 -1.39682
-2.32039 -4.74197 -1.49591
-1.83833 -4.25699 -2.33115
-2.04762 -5.4429 -2.21406
-2.72322 -4.95963 -1.94734
-2.77773 -5.00241 -2.25088
-2.70235 -5.52481 -0.826019
-1.82863 -5.93472 -0.83152
-1.6082 -4.13086 -1.88194
-2.44951 -4.81418 -1.44776
-1.18256 -5.27554 -0.858829
-1.63583 -4.75742 -1.55697
-0.814407 -5.2691 -1.61735
-2.45457 -5.36514 -0.8111
-2.35785 -4.70779 -1.75078
-0.86763 -4.72714 -1.6044
-1.96556 -5.40024 -1.35815
-1.34332 -5.41354 -0.844856
-2.87015 -5.1102 -2.40364
-0.970947 -3.57343 -2.31783
-1.47914 -4.0607 -1.86156
-1.57529 -5.3107 -0.826363
-1.00833 -3.64569 -2.36673
-2.67567 -4.92804 -2.13318
-2.29137 -6.14038 -0.861877
-1.864 -5.40625 -0.880207
-2.36412 -4.72141 -1.54955
-2.25356 -4.71054 -1.2051
-2.38191 -4.96524 -0.989807
-2.05312 -4.40613 -2.55139
-1.85458 -5.33017 -0.832153
-1.60594 -5.65372 -0.856464
-1.71455 -5.70245 -1.49615
-1.92911 -4.39246 -1.62035
-1.0461 -4.45737 -1.67764
-1.87856 -6.07434 -0.894997
-2.43169 -5.58755 -0.812382
-1.42355 -4.52759 -0.86132
-1.86302 -5.5762 -1.61549
-1.89403 -5.05869 -0.826283
-2.55186 -4.9371 -1.28364
-2.29169 -4.61948 -1.79513
-2.29825 -4.65509 -2.1435
-2.08812 -6.06491 -1.79333
-1.50356 -5.95432 -1.86447
-1.40083 -4.93942 -0.838642
-0.710236 -4.75595 -1.70757
-1.80167 -5.60773 -1.491
-2.50665 -4.80624 -1.84655
-0.768677 -4.8916 -1.66922
-2.96652 -5.39413 -0.978233
-1.30595 -4.10239 -1.79025
-2.63356 -4.94601 -1.58585
-1.51906 -4.17303 -1.66936
-1.52765 -4.11987 -1.06982
-1.49263 -5.59903 -1.77715
-1.42685 -4.3624 -1.53675
-2.28152 -6.20132 -0.859623
-2.09207 -5.29523 -1.61933
-2.23204 -4.55856 -2.1862
-2.22733 -4.75284 -1.10068
-2.8925 -5.24438 -1.23909
-1.36729 -3.97543 -1.98745
-1.11868 -4.75217 -1.61461
-2.36488 -5.0607 -0.820095
-1.73241 -4.17535 -1.78081
-1.36955 -3.89359 -2.05888
-2.28789 -5.04422 -0.822922
-1.90926 -4.33664 -1.78514
-2.10416 -4.72717 -1.27322
-2.74286 -5.89148 -0.817814
-1.56696 -4.05368 -1.69173
-2.32849 -4.78757 -1.32039
-2.1584 -5.75211 -0.815029
-1.40829 -3.91714 -1.99449
-1.87532 -5.22174 -0.82436
-2.9959 -5.26859 -1.50584
-1.10397 -5.48047 -1.53958
-2.09425 -4.65076 -1.35511
-1.92052 -5.47293 -1.4892
-2.12286 -6.44104 -0.856544
-2.37663 -4.82144 -1.74692
-2.49536 -4.88837 -1.29012
-2.72231 -6.20483 -0.84198
-1.93246 -6.08389 -1.91853
-2.31337 -5.15967 -2.10798
-2.04352 -5.28751 -1.24317
-2.74368 -6.14856 -0.833202
-2.32137 -4.7023 -1.93681
-2.05788 -4.43329 -1.92916
-2.48277 -4.86728 -1.33347
-1.74791 -4.20514 -1.79169
-1.46165 -4.34991 -0.893497
-1.46072 -5.15295 -0.831215
-0.868851 -3.47302 -2.20509
-2.056 -4.68539 -0.874592
-1.75882 -4.19925 -2.09629
-1.98485 -4.41321 -1.63023
-2.14386 -5.2692 -0.823746
-1.69627 -4.3876 -0.877167
-3.08934 -5.44196 -1.14964
-2.40269 -4.88391 -1.14685
-1.68828 -4.15897 -1.58436
-2.72038 -5.25278 -0.850193
-1.19507 -4.16934 -1.73884
-2.52618 -5.9039 -0.84845
-2.3342 -4.68436 -1.64431
-0.882767 -3.5473 -2.12788
-1.24205 -5.68329 -0.841156
-1.90448 -4.36649 -2.24298
-2.19263 -4.55801 -1.7446
-2.87849 -5.98538 -0.831703
-3.11563 -5.57932 -0.867043
-1.89662 -4.26761 -1.84635
-1.5883 -5.78882 -1.21177
-2.05124 -6.26483 -0.875496
-2.026 -5.46469 -0.813408
-2.38008 -5.17505 -0.893951
-2.16927 -4.54068 -2.29345
-2.50322 -4.90518 -1.24687
-2.76158 -5.12286 -1.30369
-2.69783 -5.34927 -0.819473
-2.42314 -4.80408 -2.28008
-2.6945 -4.92587 -2.07595
-2.19688 -5.04294 -1.07351
-1.80833 -4.272 -2.14729
-1.16441 -3.67612 -1.91232
-1.67598 -4.14786 -1.60907
-2.54765 -5.06592 -0.90604
-2.21321 -4.57135 -2.35092
-1.04192 -3.64996 -2.33029
-0.834274 -4.79144 -1.6687
-1.22441 -4.56662 -1.62028
-2.26334 -5.06058 -1.79371
-1.61583 -4.06851 -1.89124
-2.18762 -4.51196 -1.86294
-1.24333 -3.98358 -2.20228
-1.74187 -4.59888 -0.845161
-1.98961 -6.08093 -0.880005
-2.61989 -5.35034 -0.81913
-3.25642 -5.51797 -1.22026
-0.864288 -4.25439 -1.99257
-2.13586 -4.47641 -1.81835
-2.20515 -5.6395 -0.865677
-1.20364 -4.11411 -1.94926
-1.74199 -4.37619 -0.957329
-1.25835 -5.64948 -1.32441
-1.92693 -5.57178 -0.90847
-1.83513 -4.26599 -1.99075
-2.23343 -5.1358 -1.91301
-2.17651 -4.58472 -1.79469
-1.15952 -4.7475 -0.863152
-2.91869 -5.29486 -1.14431
-2.99728 -5.55307 -0.827293
-2.17496 -5.17453 -1.49341
-1.7373 -4.1937 -2.34275
-1.64079 -4.11191 -1.68411
-1.42088 -4.02774 -1.60808
-2.17281 -5.0704 -1.06888
-1.79857 -4.54507 -0.842773
-2.13266 -4.63239 -1.65553
-1.57344 -4.04486 -1.96533
-1.76889 -4.26349 -1.95543
-2.87715 -5.35391 -0.895813
-2.31184 -6.04666 -0.838333
-2.19212 -4.51376 -2.08496
-2.34273 -4.74814 -1.59235
-2.91258 -5.17453 -1.61475
-2.91371 -5.59567 -0.821301
-1.01485 -3.61514 -1.95963
-1.76483 -4.41156 -1.01225
-1.79976 -4.20596 -1.89053
-1.47275 -3.97726 -2.00634
-1.71722 -4.52271 -1.44974
-2.19099 -4.69754 -1.18667
-1.44717 -4.55295 -1.58542
-3.15106 -5.4303 -1.36127
-2.9532 -5.15588 -1.99587
-2.25711 -4.76999 -1.00098
-1.64572 -6.03177 -0.836678
-2.2404 -5.04358 -1.28077
-2.61745 -5.55637 -0.81073
-2.17941 -4.53543 -1.93299
-3.27248 -5.64441 -1.13108
-2.91824 -5.84906 -0.825645
-1.87155 -5.2092 -0.813065
-1.44142 -5.45267 -1.99126
-1.81354 -5.45944 -0.818882
-1.34561 -4.44968 -0.887177
-2.25078 -5.57474 -0.819626
-1.70122 -4.17307 -1.55593
-1.92149 -6.06625 -1.95817
-2.47035 -5.6546 -0.854702
-1.5554 -5.84872 -1.35603
-2.15834 -5.11267 -0.815815
-3.02281 -5.31558 -1.39646
-1.61357 -4.21466 -1.01428
-2.64769 -5.05423 -1.14087
-2.09259 -6.27322 -0.836773
-2.01292 -4.44992 -2.11083
-0.999176 -4.25238 -1.79114
-2.34708 -4.67188 -1.94888
-1.4558 -5.98538 -1.32555
-1.86629 -4.71161 -0.833603
-2.73077 -5.11017 -1.22292
-1.99368 -6.04028 -0.830288
-3.00647 -5.33884 -1.24064
-2.56163 -5.90976 -0.814827
-2.26512 -5.76144 -0.871281
-1.95157 -5.11685 -0.827805
-1.97122 -4.40552 -1.66077
-1.88412 -4.31137 -2.38426
-2.49925 -5.00491 -0.94735
-2.94533 -5.34866 -1.05097
-2.43997 -4.85291 -2.07631
-2.62949 -5.23325 -0.978439
-1.82628 -5.35941 -0.826
-2.03879 -4.41391 -1.8326
-1.22116 -3.75751 -1.92002
-2.3855 -5.0538 -0.938824
-3.12898 -5.33688 -1.72285
-2.13638 -4.55893 -1.38229
-2.24664 -6.35651 -0.872471
-2.12437 -4.55383 -1.50272
-3.04369 -5.22269 -2.19674
-2.30084 -5.05621 -1.9025
-2.64766 -4.9451 -1.74068
-1.56067 -5.88776 -1.66899
-2.26273 -4.8071 -0.995903
-1.8365 -4.29688 -2.44457
-2.18935 -6.1449 -0.862286
-3.00682 -5.25629 -1.97859
-2.2086 -4.60416 -1.64198
-2.49039 -4.8862 -2.12796
-1.72357 -4.20233 -1.50191
-0.836441 -3.41797 -2.42772
-2.58897 -5.36252 -0.866547
-2.24269 -4.65063 -1.39618
-3.23398 -5.59088 -1.07112
-2.82552 -5.90189 -0.816448
-1.5688 -4.04861 -1.99329
-2.27512 -5.07407 -1.61736
-2.14272 -4.53662 -2.33128
-1.93974 -4.40598 -1.99194
-1.4514 -5.50052 -1.93766
-1.41338 -4.4046 -1.62391
-2.09744 -4.46097 -2.29434
-1.93398 -5.90616 -0.884083
-2.13217 -5.29715 -1.84269
-2.05006 -5.86627 -0.873592
-3.07681 -5.47159 -1.00138
-0.635788 -5.08441 -1.68066
-0.967407 -4.36713 -1.72093
-2.36119 -4.69397 -1.78647
-2.19337 -5.20102 -0.815147
-1.7209 -4.15393 -2.19937
-2.10161 -4.79431 -0.827454
-1.27309 -3.81497 -1.95277
-1.64725 -4.10919 -2.04893
-2.57831 -5.43085 -0.829292
-1.33507 -4.96387 -1.58256
-1.9256 -5.30756 -0.814278
-2.90506 -5.16953 -1.64149
-2.64235 -5.7131 -0.83704
-1.72026 -5.12897 -0.835217
-2.90033 -5.18936 -1.43656
-2.46739 -5.03848 -0.925137
-2.84634 -5.56259 -0.823921
-2.26936 -4.94464 -0.818657
-1.33731 -4.35846 -1.63724
-2.28648 -5.03329 -1.50476
-1.60533 -4.11499 -1.90546
-3.03621 -5.22485 -2.23047
-0.910233 -4.69559 -1.59303
-1.46101 -5.51572 -1.9025
-1.6447 -4.65253 -1.27151
-1.36276 -3.89078 -1.79482
-1.34602 -3.87112 -1.70021
-2.91937 -5.22385 -1.3611
-2.97696 -5.61462 -0.834396
-1.45523 -5.52982 -0.819881
-2.2717 -4.66806 -1.75156
-2.59856 -6.0535 -0.830009
-2.93214 -5.11307 -2.50893
-2.95877 -5.1673 -1.96201
-2.5387 -4.83914 -1.7351
-1.16432 -5.60461 -0.855827
-1.87741 -4.34088 -2.21126
-1.93977 -4.36111 -2.04419
-1.46393 -5.58899 -0.836544
-3.22316 -5.56812 -1.10631
-2.39098 -4.97339 -0.859604
-2.65237 -5.2767 -0.819317
-2.16939 -5.08612 -0.825314
-1.50612 -4.08615 -1.78421
-1.72044 -4.1669 -1.80426
-1.93889 -4.53668 -0.929779
-3.10582 -5.5267 -0.911758
-3.1662 -5.51801 -1.09574
-2.36392 -4.81485 -1.15479
-2.15327 -5.15329 -1.26273
-1.11244 -3.66895 -2.10104
-1.01784 -4.92252 -1.61611
-1.0719 -4.19247 -1.90981
-2.08397 -4.5368 -2.16006
-2.33871 -4.72015 -1.44752
-2.35257 -4.71112 -2.05359
-3.14633 -5.47864 -1.16272
-1.1241 -3.67126 -1.95148
-1.04359 -5.59506 -1.54742
-1.0997 -5.35739 -0.861374
-2.58253 -5.44965 -0.855423
-2.25902 -5.40314 -0.809654
-2.30724 -4.65891 -2.1041
-2.50786 -6.05695 -0.846077
-2.90987 -5.28445 -1.17111
-0.985245 -4.87512 -0.881886
-2.75288 -5.61743 -0.81741
-1.66089 -4.11035 -1.94951
-2.0403 -5.59375 -0.824211
-0.792374 -4.85489 -1.66957
-2.01033 -4.452 -1.96937
-1.77235 -4.2608 -2.1622
-3.19347 -5.44009 -1.43874
-1.79115 -4.2207 -1.79889
-2.06755 -5.30634 -1.79759
-2.00038 -4.51788 -1.10801
-3.18016 -5.38995 -1.50948
-1.48512 -5.95258 -1.50814
-1.95976 -5.40878 -0.81385
-2.10666 -5.258 -1.79612
-1.81734 -4.465 -0.905296
-1.30115 -4.20755 -1.68914
-2.5743 -4.92194 -1.4047
-2.10893 -5.25677 -1.48776
-1.23485 -4.74881 -1.5991
-2.39128 -4.72409 -1.66802
-2.20128 -5.29666 -1.90173
-3.01273 -5.21527 -1.99816
-2.79509 -5.18375 -1.18211
-1.74985 -4.18564 -1.88913
-2.07771 -4.95291 -0.823673
-1.85905 -4.30167 -2.09241
-2.7607 -5.17175 -1.11227
-1.2851 -4.34854 -1.42496
-2.00017 -5.10391 -0.816544
-2.15149 -4.50272 -2.55058
-1.77168 -5.36118 -0.822472
-2.05641 -5.93143 -0.823761
-2.29616 -5.02264 -1.78955
-1.94679 -5.36911 -1.11941
-2.96326 -5.30603 -1.19644
-2.56505 -4.9039 -1.44089
-2.31671 -6.0127 -0.846703
-1.93434 -4.61404 -0.856979
-1.59221 -5.14914 -0.827316
-1.51176 -4.0014 -1.93842
-1.75357 -4.19684 -1.60015
-1.41144 -4.20834 -1.66277
-2.36195 -4.77313 -1.54596
-1.46075 -3.97092 -1.75228
-2.66914 -5.25229 -0.841396
-1.3134 -3.86166 -2.15012
-2.0063 -4.49139 -1.24717
-2.26122 -4.73825 -1.23688
-2.17332 -4.65201 -1.33924
-2.78886 -5.16769 -1.20792
-2.49663 -5.01923 -0.902935
-1.51787 -4.10144 -1.74627
-2.40717 -4.71011 -1.84686
-2.06776 -5.22623 -1.14332
-2.46191 -4.85892 -2.20183
-1.73068 -4.3367 -1.58786
-1.94073 -4.36255 -1.59238
-2.18408 -5.05853 -1.07002
-2.23059 -5.29434 -1.80973
-1.96709 -5.55399 -0.815922
-1.62248 -4.14368 -1.83855
-1.74086 -4.47293 -0.860237
-1.77745 -6.05267 -0.897343
-1.46204 -4.00113 -2.1461
-2.12241 -4.5112 -1.78596
-1.15071 -3.76169 -2.26773
-2.3237 -4.69888 -1.49545
-1.73338 -5.54858 -0.845451
-1.96994 -5.44379 -1.78373
-1.6487 -4.09964 -1.99355
-1.93779 -4.39285 -1.79223
-1.12247 -3.6496 -1.84103
-1.88844 -4.27359 -2.41621
-1.5416 -4.38251 -1.52662
-2.29271 -5.65891 -0.860058
-2.29018 -4.6261 -2.05348
-2.79817 -5.01364 -1.8941
-2.25285 -4.63959 -1.68913
-1.87962 -4.54117 -0.876255
-2.0508 -4.85876 -0.827587
-1.87651 -6.24274 -0.843082
-2.60358 -5.11176 -0.905415
-1.3381 -3.86789 -1.84019
-2.21832 -5.83008 -0.813873
-1.95543 -5.1236 -0.816158
-2.4135 -6.02557 -0.852352
-2.50331 -4.96738 -1.04428
-2.19417 -5.18686 -2.08297
-2.45558 -5.21106 -0.878998
-1.45863 -4.49747 -0.861877
-1.21545 -5.24744 -1.54477
-2.94191 -5.15262 -2.39632
-2.15222 -5.95499 -0.818829
-1.17741 -4.55051 -1.46789
-2.22554 -5.95535 -0.868832
-1.77164 -4.46133 -1.55138
-2.40742 -4.87097 -1.79888
-1.66872 -4.20819 -2.04715
-2.46202 -6.15408 -0.826191
-1.95256 -4.37347 -2.24715
-1.86488 -5.57205 -1.96782
-2.37157 -6.26801 -0.86121
-1.96298 -5.25119 -0.818104
-2.2392 -4.59897 -1.59711
-1.0576 -3.63708 -2.03988
-1.74428 -4.1702 -2.09112
-2.24905 -5.05603 -1.38985
-1.71101 -4.75943 -0.832367
-1.50923 -4.03897 -2.00365
-2.04576 -4.61923 -0.952488
-2.59923 -6.25705 -0.836838
-1.93919 -4.58835 -0.87746
-2.0529 -4.4447 -1.85003
-1.97 -6.15369 -0.880623
-1.65208 -5.38306 -0.811905
-1.39117 -3.90891 -1.62355
-1.82036 -5.62775 -1.78922
-2.37656 -4.54269 -1.43402
-2.11913 -5.2168 -1.37297
-2.43683 -5.90433 -0.843685
-1.41302 -5.94009 -1.06621
-2.54961 -5.7106 -0.851822
-1.41092 -5.39508 -2.1171
-1.92905 -6.10358 -1.9166
-1.90617 -4.35324 -2.19063
-2.16878 -4.60995 -2.07007
-2.61768 -4.95325 -1.44383
-2.8004 -5.02029 -2.14354
-0.524429 -5.22281 -1.7131
-1.10088 -4.99881 -1.59055
-2.37657 -4.89423 -0.953453
-1.54161 -4.02081 -1.75089
-2.39807 -4.8197 -1.24745
-1.32475 -3.99496 -2.22736
-3.20384 -5.45157 -1.40106
-1.71169 -4.64792 -1.50144
-1.62517 -4.7207 -0.83807
-2.10292 -6.04367 -0.876656
-2.245 -5.11246 -0.822113
-2.00426 -4.49185 -1.52823
-1.3726 -3.94949 -1.60201
-1.19055 -4.14536 -1.77083
-2.34804 -4.83649 -1.13607
-1.08536 -4.39209 -1.68272
-2.25539 -4.64688 -2.2879
-1.674 -4.22046 -1.65289
-2.25351 -4.75958 -1.09286
-0.960236 -4.14951 -1.95683
-1.37828 -3.90515 -1.76623
-2.00591 -5.49347 -0.81583
-2.54153 -5.18732 -0.815434
-1.83212 -4.25137 -2.5235
-1.99525 -4.37708 -1.86588
-2.36583 -4.849 -1.34172
-2.15775 -5.23642 -1.91315
-2.79434 -5.24188 -0.993145
-1.67509 -4.13947 -2.33633
-1.6371 -4.12094 -1.55125
-1.74741 -4.3967 -0.931416
-1.10182 -4.10663 -1.9525
-1.60133 -5.80237 -1.35249
-1.94566 -4.33914 -1.88352
-1.27376 -4.26248 -1.67792
-2.09062 -4.53403 -2.29533
-2.47661 -4.92087 -2.11186
-1.70088 -4.40964 -1.57683
-1.73799 -4.21732 -2.18038
-2.19629 -6.0907 -0.870434
-2.42444 -5.40756 -0.866158
-2.49602 -5.09845 -0.835861
-1.89409 -4.681 -0.833847
-2.7747 -5.27762 -0.867165
-2.87711 -5.21185 -1.29921
-1.86938 -4.33743 -2.37482
-2.37358 -4.78549 -1.52063
-1.89574 -4.35043 -1.95049
-3.02289 -5.41489 -0.996269
-2.19196 -4.58698 -2.06549
-2.70711 -4.98865 -1.74155
-1.4726 -4.02225 -2.26268
-2.65652 -4.92819 -1.94743
-2.28296 -4.62894 -1.9787
-1.28941 -4.44888 -1.62775
-0.784225 -3.44397 -2.29974
-1.44568 -5.93884 -1.20761
-2.52074 -4.82001 -1.79794
-3.07188 -5.29892 -1.69735
-2.57198 -4.97202 -1.21371
-1.39804 -3.92133 -1.60555
-2.11234 -4.61993 -1.10355
-1.17305 -4.65878 -1.6155
-3.01906 -5.75226 -0.831505
-2.9572 -5.7095 -0.82291
-1.28824 -5.04678 -0.840805
-2.49123 -4.90482 -1.0899
-3.18388 -5.41147 -1.48483
-2.25322 -5.10934 -2.07856
-2.95238 -5.28677 -1.23501
-2.24644 -6.38043 -0.86488
-0.769028 -4.67035 -1.70736
-2.46049 -4.76904 -1.64465
-1.14256 -5.42441 -1.51956
-2.01085 -5.65952 -0.876419
-0.791489 -4.64188 -1.70289
-1.6931 -4.41223 -0.854954
-1.01376 -5.68393 -1.5233
-1.18916 -4.83362 -1.59646
-2.19093 -5.35748 -0.812721
-1.73515 -4.16812 -2.14547
-2.82945 -5.35696 -0.846741
-2.18185 -4.56439 -1.5827
-1.18001 -4.22684 -1.70334
-1.16444 -4.25449 -1.69949
-1.98935 -4.39703 -2.09213
-3.03589 -5.32806 -1.35266
-1.41203 -3.92441 -1.84644
-2.0993 -5.30801 -1.91937
-2.89275 -5.30026 -1.04336
-2.80255 -5.69666 -0.824276
-2.28969 -5.69202 -0.811104
-2.45158 -4.96237 -0.899715
-1.25032 -5.36441 -0.846153
-2.44905 -4.7348 -1.73491
-2.67287 -6.10114 -0.82193
-2.75645 -5.01984 -1.78397
-1.36714 -3.98901 -2.15282
-2.89005 -5.95059 -0.827415
-1.38176 -3.978 -1.95879
-1.90483 -5.51602 -1.62539
-2.51051 -5.81046 -0.814842
-2.39291 -4.91833 -1.76948
-1.99828 -4.38351 -1.92172
-1.88077 -5.54211 -1.62848
-1.88371 -5.55142 -1.78535
-1.71338 -5.59619 -0.821796
-1.76822 -5.67908 -1.98939
-2.8763 -5.26846 -1.09978
-1.47627 -5.42209 -0.832996
-2.88091 -5.12354 -1.75752
-2.28319 -5.18613 -0.829201
-2.64436 -4.99527 -1.34822
-1.74944 -5.39603 -0.8172
-2.37743 -5.67111 -0.861633
-1.35072 -3.86386 -1.57866
-1.47868 -5.98077 -1.86938
-1.65376 -5.61008 -0.858681
-1.28806 -4.64792 -1.60445
-2.03569 -4.46036 -2.24574
-0.9142 -4.66861 -1.6687
-2.00223 -4.5181 -1.50914
-2.69524 -5.1012 -2.12739
-1.65753 -4.15271 -2.18322
-0.891907 -3.48373 -2.17687
-2.98277 -5.34406 -1.12687
-2.00948 -5.04953 -0.818291
-2.13766 -4.62073 -1.19106
-2.20065 -4.69162 -1.27712
-2.52277 -4.86133 -1.39959
-3.05006 -5.41565 -1.09132
-1.67966 -4.34274 -0.937946
-2.35033 -4.763 -1.24631
-2.44682 -4.79886 -1.50035
-1.28571 -3.82364 -1.93248
-1.71933 -4.87372 -0.831272
-2.86868 -5.0831 -2.10704
-0.96196 -5.33859 -0.866009
-1.53848 -4.02469 -1.88536
-1.7726 -4.26633 -2.40487
-2.01743 -5.31821 -0.818909
-2.21887 -4.96341 -0.895523
-2.19533 -5.28915 -2.15129
-1.89539 -4.29828 -1.83965
-2.23248 -5.13889 -2.07771
-1.86311 -5.88467 -0.82552
-1.71707 -5.62186 -1.09063
-2.24236 -4.65256 -1.53593
-1.10681 -3.61807 -1.88211
-2.26862 -4.64996 -1.49614
-2.51863 -5.00201 -0.995728
-2.22055 -4.81256 -0.891068
-1.72009 -4.18359 -2.08164
-1.96007 -4.40546 -2.25282
-1.33852 -3.86908 -1.97412
-2.47539 -4.86038 -1.35397
-1.46127 -4.30844 -1.6352
-1.92491 -4.49597 -1.53138
-2.88512 -5.11642 -2.32726
-0.984543 -4.33682 -1.7264
-1.97508 -4.40884 -2.34403
-2.79665 -5.11746 -1.39474
-2.97429 -5.3259 -1.15781
-1.86978 -4.82477 -0.83564
-2.53177 -4.82977 -1.76126
-2.35641 -4.7428 -1.39391
-1.75496 -6.11697 -0.900524
-2.18629 -4.6395 -1.2292
-1.67197 -4.12527 -1.90704
-1.62221 -5.88269 -0.836014
-1.87633 -4.35876 -1.59644
-2.34314 -4.76627 -1.44765
-1.4912 -5.69577 -1.74219
-2.44649 -4.75391 -1.69722
-2.33624 -4.87775 -0.906509
-1.45685 -5.96423 -1.34652
-1.59648 -4.10611 -2.19654
-1.70992 -5.33847 -0.811081
-1.6368 -4.34921 -1.59602
-2.52739 -4.83511 -1.96551
-1.33716 -4.0741 -1.7678
-2.71992 -5.00168 -1.69401
-2.31172 -4.85495 -0.99828
-1.6555 -5.71829 -1.21336
-2.16895 -5.21933 -1.91536
-2.05312 -4.71063 -0.853004
-1.90256 -5.48529 -0.821377
-2.21382 -6.03464 -0.823162
-1.95866 -4.39267 -2.19252
-1.30673 -5.61765 -0.84433
-2.17896 -4.68652 -1.29967
-1.88126 -6.08038 -0.886929
-1.4222 -3.94742 -1.68382
-2.09886 -4.52264 -2.40123
-2.15401 -4.47385 -1.98782
-1.53046 -4.58472 -1.57123
-1.4344 -5.32187 -2.08449
-1.47208 -5.25101 -2.00558
-1.4462 -5.32645 -2.04446
-1.44499 -5.34433 -2.0383
-1.45293 -5.35007 -2.01033
-1.44354 -5.41006 -2.00703
-1.45164 -5.46188 -1.95599
-1.45938 -5.54861 -1.89196
-1.44788 -5.60352 -1.89952
-1.47585 -5.54953 -1.84492
-1.48157 -5.55759 -1.82526
-1.4884 -5.56833 -1.8017
-1.47932 -5.77567 -1.74265
-1.47758 -5.80148 -1.73734
-1.46596 -5.85611 -1.74713
-1.45418 -5.91171 -1.75697
-1.43503 -6.01843 -1.76724
-1.44878 -4.06644 -1.74522
-2.21898 -5.07111 -1.27582
-2.07143 -4.44336 -1.89523
-1.30458 -3.88516 -2.28783
-1.92281 -4.34747 -2.0899
-2.21959 -4.60699 -2.15949
-1.2451 -4.05276 -1.94492
-1.93594 -4.3985 -1.58672
-2.30516 -4.71848 -1.29613
-1.04619 -5.30569 -1.59438
-2.59114 -5.07657 -0.950333
-3.08833 -5.75058 -0.846485
-1.92487 -6.15952 -0.837494
-1.7648 -4.20926 -2.50674
-1.78072 -4.19913 -2.47249
-1.71762 -4.16614 -2.43448
-1.9119 -4.30988 -2.49471
-1.72284 -4.16702 -2.41861
-1.4919 -4.08636 -2.39049
-1.73441 -4.16837 -2.38419
-1.54704 -4.05856 -2.29408
-1.43689 -4.0545 -2.33372
-2.01617 -4.41669 -2.55658
-1.84874 -4.26959 -2.4582
-1.9752 -4.35342 -2.49973
-1.73221 -4.18182 -2.37261
-2.00027 -4.36581 -2.49997
-1.79417 -4.24179 -2.39397
-1.69226 -4.13953 -2.29144
-1.40024 -4.02045 -2.24487
-1.9082 -4.32327 -2.46605
-1.90471 -4.35355 -2.45147
-1.42061 -4.02203 -2.20157
-1.34712 -3.98972 -2.19038
-1.95421 -4.3623 -2.44815
-1.58846 -4.0705 -2.18793
-1.51648 -4.0433 -2.19208
-2.03787 -4.41721 -2.50126
-1.87169 -4.29712 -2.40199
-1.70148 -4.15811 -2.24727
-2.05746 -4.40396 -2.44214
-1.79874 -4.25674 -2.34023
-1.73898 -4.21402 -2.31172
-1.30234 -3.95911 -2.1227
-1.86293 -4.30835 -2.34475
-1.52045 -4.04871 -2.16024
-1.99741 -4.40274 -2.44696
-1.92155 -4.34396 -2.39076
-1.72475 -4.23706 -2.32133
-1.59633 -4.07791 -2.14582
-1.5376 -4.04776 -2.14065
-1.81334 -4.26212 -2.29013
-1.73576 -4.23837 -2.28933
-1.60585 -4.09567 -2.14447
-2.05833 -4.41821 -2.39944
-1.97797 -4.39944 -2.42151
-1.93385 -4.35019 -2.34049
-1.55833 -4.05441 -2.10105
-1.33736 -3.97369 -2.04325
-1.18723 -3.98215 -2.11977
-1.41571 -4.00085 -2.04675
-1.97722 -4.41684 -2.3996
-1.76277 -4.24554 -2.25439
-1.66408 -4.14227 -2.14772
-1.49205 -4.03342 -2.04429
-1.24916 -3.96719 -2.03032
-2.07033 -4.42618 -2.35833
-1.81775 -4.28641 -2.24601
-2.07095 -4.43903 -2.35204
-1.98097 -4.42313 -2.37711
-1.62186 -4.08902 -2.04395
-1.76573 -4.24985 -2.19351
-1.448 -4.00668 -1.99043
-1.97702 -4.43958 -2.36854
-1.87154 -4.33969 -2.25069
-1.37259 -3.99741 -1.95397
-1.26378 -3.99448 -1.97588
-1.1402 -4.00189 -2.00217
-2.05502 -4.45663 -2.29681
-1.9976 -4.42191 -2.31241
-1.588 -4.07556 -1.98577
-1.52541 -4.05127 -1.95771
-1.99115 -4.4375 -2.32096
-1.45021 -4.02353 -1.95626
-1.66393 -4.18573 -2.08441
-2.00493 -4.4523 -2.28927
-1.8551 -4.29269 -2.14134
-1.95482 -4.3772 -2.20376
-1.39711 -4.01508 -1.89111
-1.23955 -4.03635 -1.97192
-1.90465 -4.35489 -2.14797
-1.79483 -4.25363 -2.09031
-2.01401 -4.44766 -2.2499
-1.54128 -4.07532 -1.89969
-1.22475 -4.06653 -1.96447
-2.10249 -4.45773 -2.19264
-1.81427 -4.24847 -2.04296
-1.6812 -4.12021 -1.92208
-1.41345 -4.02527 -1.85122
-1.26158 -4.05115 -1.91887
-2.02046 -4.43445 -2.19565
-1.96196 -4.39603 -2.15916
-1.67857 -4.13351 -1.91307
-1.09821 -4.09158 -1.97419
-0.980469 -4.08691 -1.99176
-2.06282 -4.45593 -2.17759
-1.82666 -4.26215 -2.01665
-1.74207 -4.16144 -1.9409
-1.68991 -4.12976 -1.89232
-1.55516 -4.09464 -1.85131
-2.21165 -4.5502 -2.24349
-0.989059 -4.08856 -1.97694
-2.04872 -4.42377 -2.13815
-1.75081 -4.17349 -1.90475
-1.68797 -4.14328 -1.88151
-1.48807 -4.06967 -1.83525
-1.4247 -4.03629 -1.81949
-0.989334 -4.09607 -1.96858
-1.87309 -4.30576 -2.05196
-0.974533 -4.11911 -1.96691
-2.10921 -4.47217 -2.14938
-2.04755 -4.43387 -2.1295
-1.96848 -4.39313 -2.10465
-2.82333 -5.07144 -2.3014
-1.82474 -4.29025 -1.98916
-1.43509 -4.04694 -1.78996
-2.24265 -4.67288 -2.35058
-1.23393 -4.10645 -1.90653
-2.22333 -4.56018 -2.20646
-2.11324 -4.51199 -2.20004
-2.05701 -4.42862 -2.1041
-1.49605 -4.0784 -1.8111
-1.18251 -4.14828 -1.94851
-1.13249 -4.10703 -1.90307
-1.83395 -4.28268 -1.974
-1.5714 -4.11514 -1.79748
-1.27769 -4.08972 -1.8508
-2.09203 -4.49945 -2.14558
-1.76331 -4.20184 -1.84307
-2.27679 -4.79047 -2.4356
-1.10756 -4.15482 -1.89261
-1.90976 -4.35236 -1.99707
-1.84123 -4.29764 -1.94498
-2.30435 -4.69693 -2.29041
-2.17224 -4.52545 -2.14706
-1.83273 -4.21567 -1.84817
-2.33382 -4.69357 -2.28043
-2.24094 -4.56464 -2.14109
-1.07146 -4.17218 -1.9318
-0.904617 -4.20309 -1.98509
-1.96053 -4.36752 -1.9994
-1.817 -4.2099 -1.84498
-1.6376 -4.15912 -1.79083
-2.34152 -4.68997 -2.24683
-2.25316 -4.64771 -2.24857
-1.06137 -4.18567 -1.93374
-2.06668 -4.56772 -2.1842
-2.06656 -4.45416 -2.05476
-1.68848 -4.18973 -1.82946
-2.2319 -4.58862 -2.14217
-1.07942 -4.17993 -1.91109
-1.86583 -4.29111 -1.90685
-2.26736 -4.64938 -2.19938
-1.84886 -4.26221 -1.84623
-1.82872 -4.24521 -1.83967
-2.28464 -4.64908 -2.18922
-1.99883 -4.4545 -1.9939
-1.70079 -4.20181 -1.78997
-1.45357 -4.09897 -1.70286
-1.17174 -4.1554 -1.79016
-2.12469 -4.5079 -2.0589
-2.34996 -4.68994 -2.18795
-1.30797 -4.12674 -1.76144
-2.20323 -4.63565 -2.16231
-2.19804 -4.52704 -2.04666
-1.92445 -4.43759 -2.00002
-1.93898 -4.3251 -1.89312
-1.81728 -4.23904 -1.80045
-1.29884 -4.15503 -1.74723
-1.76147 -4.24014 -1.79782
-2.2446 -4.60916 -2.09082
-2.10802 -4.46164 -1.94335
-2.04369 -4.42178 -1.94719
-1.98936 -4.37061 -1.8897
-1.94003 -4.33047 -1.85341
-1.59492 -4.16196 -1.70246
-1.52455 -4.14273 -1.69081
-2.04955 -4.41422 -1.89319
-1.65634 -4.18332 -1.72709
-1.33713 -4.13135 -1.70827
-2.20912 -4.56107 -1.99825
-2.15114 -4.51544 -1.99659
-1.66525 -4.19754 -1.69418
-1.16827 -4.18771 -1.76218
-2.36906 -4.67999 -2.12671
-2.25845 -4.608 -2.03915
-0.988724 -4.23132 -1.82856
-2.1618 -4.51355 -1.95099
-1.85143 -4.28256 -1.7728
-1.01411 -4.22476 -1.79711
-1.82545 -4.29709 -1.77729
-2.36937 -4.69571 -2.09735
-1.19414 -4.18317 -1.72606
-2.11064 -4.47437 -1.90265
-1.95161 -4.36929 -1.80749
-1.5992 -4.18369 -1.67167
-1.42603 -4.17468 -1.67222
-2.3087 -4.65097 -2.0445
-1.314 -4.1799 -1.69641
-1.85567 -4.2916 -1.73919
-1.80724 -4.24747 -1.74245
-1.72691 -4.23489 -1.69938
-1.50835 -4.20184 -1.65907
-2.26616 -4.61063 -1.99591
-1.79848 -4.27057 -1.6995
-1.73245 -4.24155 -1.68075
-1.59995 -4.21045 -1.64265
-2.00259 -4.40662 -1.79612
-2.38646 -4.6958 -2.04073
-2.11372 -4.49069 -1.89715
-1.91605 -4.34723 -1.74907
-1.85892 -4.3139 -1.69861
-2.31253 -4.66367 -2.00036
-1.74088 -4.26199 -1.64214
-2.27657 -4.60519 -1.94991
-2.16344 -4.53784 -1.88491
-1.67303 -4.24484 -1.62983
-1.48952 -4.2435 -1.65044
-2.20161 -4.55664 -1.90137
-2.06119 -4.45477 -1.79181
-1.80527 -4.29617 -1.64192
-2.39624 -4.70453 -1.99836
-1.00035 -4.30844 -1.73176
-1.90804 -4.37009 -1.6935
-1.58568 -4.25571 -1.62341
-2.33694 -4.67007 -1.9938
-1.14236 -4.29453 -1.69308
-1.47768 -4.27255 -1.6421
-1.25153 -4.30283 -1.67313
-2.22594 -4.58469 -1.88183
-2.01729 -4.44016 -1.73838
-1.73917 -4.28156 -1.62566
-1.37781 -4.27939 -1.6481
-1.86626 -4.3367 -1.64138
-1.73964 -4.30423 -1.60189
-1.65837 -4.28198 -1.62116
-1.57693 -4.27521 -1.62011
-1.36378 -4.30634 -1.64474
-2.28633 -4.62662 -1.89288
-1.12802 -4.31851 -1.69105
-1.6572 -4.29843 -1.60684
-1.56546 -4.30127 -1.61531
-0.971558 -4.36441 -1.71751
-2.07021 -4.45844 -1.7493
-1.9659 -4.40964 -1.68874
-1.23663 -4.33115 -1.66867
-2.24879 -4.60602 -1.8498
-2.34895 -4.67404 -1.89262
-1.22124 -4.35992 -1.66459
-2.21286 -4.57047 -1.8075
-1.92171 -4.38577 -1.64475
-0.943771 -4.40921 -1.71325
-2.0273 -4.45364 -1.69799
-2.30409 -4.6568 -1.84695
-2.17992 -4.57034 -1.80957
-1.44077 -4.35458 -1.62532
-2.41483 -4.71173 -1.89111
-2.11263 -4.49695 -1.74178
-1.81146 -4.34451 -1.57999
-1.71791 -4.36591 -1.58509
-1.42825 -4.37573 -1.6263
-1.3119 -4.4061 -1.6325
-0.914139 -4.45627 -1.70944
-2.04803 -4.4538 -1.68673
-1.97797 -4.43408 -1.64763
-2.34221 -4.66757 -1.84031
-2.04901 -4.47067 -1.64125
-1.62396 -4.37579 -1.59467
-2.30194 -4.6438 -1.79566
-2.15417 -4.55576 -1.69783
-1.80344 -4.37341 -1.56884
-1.52298 -4.39932 -1.59658
-2.36147 -4.68405 -1.83485
-1.16737 -4.45425 -1.65696
-0.88829 -4.4971 -1.7063
-1.87404 -4.40451 -1.557
-1.61281 -4.40836 -1.58415
-1.99869 -4.44666 -1.5926
-1.79097 -4.40802 -1.5617
-1.39734 -4.43527 -1.62177
-1.01892 -4.50385 -1.67272
-2.25066 -4.60623 -1.74242
-2.20795 -4.60208 -1.74252
-1.3876 -4.45737 -1.61705
-1.14699 -4.4921 -1.65191
-0.867157 -4.52811 -1.70614
-1.49399 -4.45557 -1.59465
-1.27869 -4.46802 -1.62678
-0.84935 -4.55606 -1.70422
-1.6862 -4.44302 -1.57404
-2.43709 -4.71887 -1.79474
-2.3062 -4.65521 -1.74466
-2.21402 -4.59882 -1.70001
-2.06552 -4.49103 -1.59733
-1.36665 -4.4993 -1.61249
-0.991959 -4.54623 -1.67179
-2.1584 -4.54886 -1.64934
-1.93671 -4.45627 -1.5412
-0.819366 -4.60117 -1.70293
-1.67865 -4.46323 -1.56972
-1.4727 -4.50168 -1.58859
-0.976669 -4.56952 -1.67191
-2.11269 -4.54135 -1.64204
-2.01468 -4.45856 -1.54573
-1.2361 -4.54257 -1.62451
-0.966064 -4.58508 -1.67268
-1.66031 -4.5 -1.56332
-1.34047 -4.55032 -1.60825
-0.950775 -4.61246 -1.66871
-1.09166 -4.58743 -1.64578
-2.0648 -4.5015 -1.53704
-1.7542 -4.50754 -1.54403
-2.44446 -4.72992 -1.75661
-2.38374 -4.71097 -1.72878
-1.54628 -4.55185 -1.5726
-1.20531 -4.60156 -1.61778
-0.930603 -4.64395 -1.66815
-1.64316 -4.54568 -1.56177
-1.31371 -4.60303 -1.60343
-1.04831 -4.65735 -1.64581
-2.15923 -4.59128 -1.59241
-2.12018 -4.54123 -1.54296
-2.15271 -4.56195 -1.60364
-1.18805 -4.6312 -1.61749
-2.38722 -4.71948 -1.69256
-2.39345 -4.56924 -1.5711
-0.892365 -4.70535 -1.66549
-1.91171 -4.53094 -1.52934
-1.78651 -4.58694 -1.5774
-1.62912 -4.57376 -1.56306
-1.41975 -4.61029 -1.57989
-1.84706 -4.61954 -1.59588
-1.79359 -4.60492 -1.54537
-2.26347 -4.5687 -1.54438
-2.18924 -4.58212 -1.54597
-2.05464 -4.50931 -1.49519
-1.77673 -4.61096 -1.57649
-1.6144 -4.61252 -1.55563
-1.01897 -4.7121 -1.63851
-0.857651 -4.75726 -1.66689
-2.16649 -4.5993 -1.54798
-1.39833 -4.65555 -1.57528
-0.666336 -4.81912 -1.70846
-2.07951 -4.53677 -1.48588
-1.77625 -4.62808 -1.56159
-1.49919 -4.65405 -1.56452
-1.25938 -4.70364 -1.60018
-0.993637 -4.75287 -1.63874
-1.68855 -4.65103 -1.54636
-2.39516 -4.74905 -1.64489
-0.646973 -4.84564 -1.71035
-1.66956 -4.66385 -1.57379
-0.625366 -4.87173 -1.71577
-2.20056 -4.60672 -1.49784
-1.60414 -4.65012 -1.5406
-1.3766 -4.69467 -1.57716
-0.961472 -4.80402 -1.63956
-2.37079 -4.65948 -1.57239
-0.603928 -4.90561 -1.7132
-2.09094 -4.55228 -1.43938
-1.80592 -4.61356 -1.51072
-1.48611 -4.68491 -1.56001
-1.7149 -4.63055 -1.51081
-1.47243 -4.71329 -1.55907
-1.09227 -4.79929 -1.61248
-2.37781 -4.52884 -1.4411
-1.58173 -4.69189 -1.54588
-1.22389 -4.77036 -1.59727
-1.56847 -4.71735 -1.54823
-1.35014 -4.75717 -1.5653
-1.20651 -4.80231 -1.59654
-0.923965 -4.86465 -1.63958
-0.55098 -4.97406 -1.72205
-1.68492 -4.686 -1.52156
-1.4532 -4.75467 -1.55636
-1.06265 -4.84927 -1.61302
-0.529526 -4.99979 -1.7277
-2.21527 -4.61703 -1.4538
-2.15807 -4.58936 -1.43779
-1.55533 -4.74887 -1.54485
-1.33372 -4.78787 -1.56581
-2.38741 -4.53925 -1.40466
-1.32332 -4.80984 -1.5636
-1.03909 -4.89111 -1.61134
-0.696732 -4.99423 -1.67712
-1.53802 -4.7829 -1.54728
-1.43765 -4.79987 -1.54322
-0.869125 -4.95358 -1.6394
-1.67397 -4.73227 -1.50189
-1.52213 -4.81494 -1.54893
-1.30289 -4.84946 -1.56293
-1.15654 -4.89655 -1.59235
-0.679031 -5.02167 -1.67693
-1.68887 -4.7207 -1.48204
-1.00117 -4.95416 -1.61304
-0.845413 -4.98776 -1.6435
-0.654037 -5.05637 -1.68059
-2.17021 -4.61087 -1.39876
-1.42554 -4.82767 -1.53995
-0.827591 -5.01541 -1.64478
-2.19749 -4.60779 -1.39811
-1.49429 -4.86801 -1.55456
-1.28635 -4.88113 -1.56274
-1.12381 -4.952 -1.59575
-2.37663 -4.59418 -1.39536
-2.21324 -4.65509 -1.43843
-2.46962 -4.80994 -1.55518
-0.987991 -4.98279 -1.60708
-2.09544 -5.30362 -1.92841
-0.61116 -5.11533 -1.68749
-2.4852 -4.80972 -1.54385
-0.969543 -5.01236 -1.60896
-0.591934 -5.14111 -1.69118
-1.25209 -4.94763 -1.56156
-0.768631 -5.10751 -1.64814
-2.16336 -4.63089 -1.38017
-1.43855 -4.95871 -1.5801
-0.945297 -5.05215 -1.61054
-2.13315 -5.26425 -1.86314
-1.35814 -4.96075 -1.54255
-1.06949 -5.05447 -1.59142
-0.913849 -5.10345 -1.61295
-0.741379 -5.14954 -1.65022
-2.24388 -4.66608 -1.35333
-0.728088 -5.1712 -1.65002
-2.21931 -5.29037 -1.84809
-0.700272 -5.21014 -1.65606
-1.19749 -5.0527 -1.5607
-0.89003 -5.14304 -1.61409
-1.46751 -4.96497 -1.51862
-0.875931 -5.16602 -1.61513
-0.660019 -5.26563 -1.66557
-1.01212 -5.1582 -1.59138
-2.28764 -5.35226 -1.86749
-0.627838 -5.31897 -1.66436
-1.29126 -5.09506 -1.54337
-2.25491 -4.70526 -1.33685
-2.1685 -4.65363 -1.29429
-1.25813 -5.1525 -1.55228
-0.957321 -5.25351 -1.59497
-2.2162 -5.36273 -1.81054
-0.761276 -5.3497 -1.6272
-1.23511 -5.19556 -1.55551
-1.06264 -5.27408 -1.59454
-0.736099 -5.38498 -1.63465
-1.22025 -5.22174 -1.55904
-0.919968 -5.32397 -1.59224
-2.50864 -4.85498 -1.44352
-0.716629 -5.41794 -1.63507
-1.77673 -5.73444 -1.99513
-0.898148 -5.36453 -1.59137
-2.19107 -4.7222 -1.24513
-2.10815 -4.73373 -1.25932
-0.865982 -5.4166 -1.59721
-2.24661 -4.70316 -1.24728
-1.20288 -5.28708 -1.53224
-0.980255 -5.41824 -1.60718
-0.84256 -5.45599 -1.60002
-2.30408 -4.76358 -1.25098
-1.1722 -5.34525 -1.5361
-0.820389 -5.4938 -1.60223
-0.93602 -5.50528 -1.60516
-2.18791 -4.75873 -1.22675
-1.1537 -5.38431 -1.53489
-0.91951 -5.55789 -1.58633
-2.27054 -4.75708 -1.19128
-2.25154 -5.06522 -1.42492
-2.24535 -5.08551 -1.42878
-1.10451 -5.4884 -1.53168
-2.25038 -5.0824 -1.41758
-1.11867 -5.48438 -1.50982
-0.913193 -5.59579 -1.56312
-1.84691 -5.96335 -1.93366
-2.34975 -4.7963 -1.19161
-1.92931 -6.00644 -1.97162
-1.01392 -5.66025 -1.54359
-1.83922 -5.99924 -1.93166
-1.91882 -6.05057 -1.97459
-1.8401 -6.01889 -1.91716
-1.83823 -6.03903 -1.90977
-1.02386 -5.68085 -1.50801
-1.93065 -6.06659 -1.93317
-1.81866 -6.0914 -1.92889
-1.82124 -6.09567 -1.91977
-2.5137 -4.91541 -1.21184
-2.2899 -4.85147 -1.09815
-2.41875 -4.86478 -1.1452
-2.35635 -4.8598 -1.10335
-2.40668 -4.84991 -1.10091
-2.42131 -4.89493 -1.09642
-2.30354 -4.905 -1.10015
-2.30721 -4.85019 -1.04861
-2.46324 -4.91086 -1.13733
-2.36018 -4.88092 -1.08279
-2.44948 -4.90546 -1.10042
-1.1964 -5.74487 -1.35802
-2.09511 -6.0983 -1.759
-1.18127 -5.80511 -1.33633
-2.07507 -6.18015 -1.77401
-2.49176 -4.94788 -1.09766
-2.44803 -4.92221 -1.05538
-2.44803 -4.93964 -1.03181
-2.0872 -6.20276 -1.73246
-2.37752 -4.94266 -1.011
-2.46165 -4.965 -0.995216
-2.10928 -6.22418 -1.66727
-2.10948 -6.24271 -1.65908
-2.56142 -5.03683 -1.0331
-2.4538 -4.98611 -0.977966
-2.38637 -5.00916 -0.958473
-2.30415 -5.05014 -0.9562
-1.37614 -5.82523 -1.17822
-2.29225 -5.06711 -0.972073
-2.4614 -5.00967 -0.95076
-2.19408 -5.13718 -0.977406
-2.55396 -5.01157 -0.99456
-1.35188 -5.89328 -1.1708
-2.09579 -5.21777 -0.965752
-1.33846 -5.93533 -1.16347
-2.30215 -5.10458 -0.932106
-1.95442 -5.34354 -0.993797
-2.19948 -5.20615 -0.928421
-1.96724 -5.36917 -0.956657
-2.62276 -5.13123 -1.02365
-2.52856 -5.04178 -0.94519
-2.38255 -5.10141 -0.92263
-2.63472 -5.10861 -0.992073
-2.53766 -5.04947 -0.933334
-2.46939 -5.06229 -0.910843
-2.29906 -5.15881 -0.910995
-1.80148 -5.5036 -0.985081
-2.38469 -5.11844 -0.910275
-2.19296 -5.25745 -0.913555
-1.81863 -5.52582 -0.962402
-2.38153 -5.14395 -0.905113
-2.08292 -5.3447 -0.916805
-1.80748 -5.56516 -0.957237
-2.59756 -5.09677 -0.929115
-2.46828 -5.10773 -0.894264
-1.79916 -5.59933 -0.95034
-2.5434 -5.09985 -0.892715
-2.07719 -5.36923 -0.913784
-1.54106 -5.90216 -1.02718
-2.1895 -5.30594 -0.894535
-1.94652 -5.48575 -0.924019
-2.45946 -5.16281 -0.89027
-2.37602 -5.20807 -0.887455
-2.28816 -5.25131 -0.887184
-1.94252 -5.50723 -0.918472
-1.78728 -5.64502 -0.942532
-1.54584 -5.90994 -1.01341
-1.5345 -5.93976 -1.01326
-2.18211 -5.34586 -0.887787
-1.93779 -5.56088 -0.895081
-2.6562 -5.16275 -0.931465
-2.60786 -5.15036 -0.883999
-2.2832 -5.28238 -0.881851
-1.52385 -5.98642 -1.00038
-2.54039 -5.14999 -0.879433
-2.278 -5.30759 -0.880081
-2.17706 -5.37048 -0.884693
-2.06084 -5.46457 -0.890923
-2.16875 -5.40759 -0.881485
-1.92619 -5.58279 -0.903271
-1.75639 -5.75229 -0.92981
-2.26967 -5.35092 -0.875755
-2.05254 -5.50104 -0.886185
-2.53549 -5.1832 -0.878067
-2.44662 -5.25412 -0.880417
-2.35982 -5.31024 -0.875233
-1.73885 -5.80542 -0.927635
-2.66182 -5.1597 -0.898354
-2.52757 -5.22122 -0.88134
-2.15895 -5.45395 -0.876259
-2.0388 -5.55484 -0.882034
-2.67274 -5.1926 -0.892677
-2.43633 -5.30734 -0.880589
-2.26021 -5.3981 -0.871719
-1.95944 -5.55966 -0.844406
-1.72226 -5.85831 -0.923901
-2.35081 -5.35788 -0.872513
-2.14833 -5.49753 -0.874142
-2.60948 -5.19302 -0.872902
-2.25417 -5.42743 -0.869686
-1.70903 -5.89929 -0.921726
-2.52565 -5.26233 -0.871193
-2.33345 -5.42136 -0.879826
-2.24696 -5.4592 -0.868805
-2.13582 -5.54529 -0.873589
-1.88011 -5.74472 -0.891586
-2.60587 -5.2023 -0.840614
-2.45262 -5.32861 -0.844757
-2.60002 -5.25998 -0.873138
-2.4471 -5.34744 -0.844299
-2.22513 -5.52628 -0.879662
-2.1241 -5.58701 -0.874569
-2.50908 -5.3486 -0.876041
-2.43008 -5.37665 -0.866497
-1.98561 -5.72928 -0.884937
-1.84724 -5.84915 -0.889908
-2.68111 -5.21799 -0.868042
-2.22351 -5.55722 -0.86842
-1.65126 -6.06439 -0.92112
-2.60634 -5.30832 -0.853569
-2.32323 -5.5065 -0.863911
-1.82843 -5.90302 -0.892517
-2.51839 -5.36838 -0.848801
-2.40964 -5.46997 -0.872223
-2.21469 -5.60025 -0.865471
-2.10626 -5.66293 -0.84626
-1.97087 -5.79874 -0.874432
-1.81389 -5.94385 -0.894943
-2.09422 -5.70883 -0.86945
-1.79558 -5.9982 -0.896324
-2.51016 -5.40524 -0.849201
-1.94598 -5.86862 -0.882343
-2.66617 -5.30878 -0.850243
-2.40831 -5.5076 -0.86076
-2.06161 -5.81717 -0.876366
-2.58116 -5.40549 -0.870541
-2.50069 -5.45261 -0.858639
-2.18636 -5.71405 -0.867428
-2.39993 -5.55988 -0.858067
-2.67357 -5.35062 -0.852417
-2.59157 -5.40784 -0.841282
-2.49197 -5.49533 -0.862381
-2.17694 -5.75992 -0.864532
-1.911 -5.99072 -0.880753
-2.49458 -5.55103 -0.851421
-2.04602 -5.8884 -0.870125
-2.28233 -5.70386 -0.861671
-2.16443 -5.8085 -0.866257
-2.02336 -5.95248 -0.880577
-2.14687 -5.86417 -0.874306
-2.0146 -5.99167 -0.877495
-1.87537 -6.10599 -0.883999
-2.26366 -5.77789 -0.86742
-2.14525 -5.88074 -0.869907
-1.85376 -6.17252 -0.88781
-2.64948 -5.46735 -0.842934
-2.49779 -5.58652 -0.838203
-2.65353 -5.48593 -0.863274
-2.56934 -5.54272 -0.856834
-2.47783 -5.61206 -0.853321
-2.26317 -5.80322 -0.858177
-2.13248 -5.93671 -0.868977
-2.3665 -5.74615 -0.855919
-2.25072 -5.85583 -0.860729
-2.12886 -5.95868 -0.86594
-2.45952 -5.72055 -0.855537
-2.35065 -5.81149 -0.863262
-2.34608 -5.85037 -0.858353
-2.10023 -6.06088 -0.845551
-1.94432 -6.24698 -0.882561
-2.55594 -5.66068 -0.852329
-2.09036 -6.10727 -0.872128
-2.45222 -5.75662 -0.841736
-2.2188 -6.00766 -0.860847
-2.06203 -6.21506 -0.877319
-2.44875 -5.80966 -0.849182
-2.33253 -5.9317 -0.855755
-2.64597 -5.66022 -0.837234
-2.44463 -5.83707 -0.848854
-2.18752 -6.12918 -0.871761
-2.53856 -5.7998 -0.850624
-2.4279 -5.90479 -0.860729
-2.03642 -6.31787 -0.879749
-2.17377 -6.20993 -0.866032
-2.53474 -5.84958 -0.84549
-2.42659 -5.9592 -0.847038
-2.29909 -6.08243 -0.839993
-2.14922 -6.30054 -0.87664
-2.63576 -5.77042 -0.838253
-2.26505 -6.20511 -0.852219
-2.51515 -5.96518 -0.854599
-2.40176 -6.09399 -0.854668
-2.12743 -6.40121 -0.878227
-2.51418 -6.00195 -0.847347
-2.39194 -6.16727 -0.851891
-2.62302 -5.90891 -0.835533
-2.60669 -6.00772 -0.84787
-2.49242 -6.15512 -0.851799
-2.22841 -6.46204 -0.871151
-2.3656 -6.32986 -0.85474
-2.22137 -6.49149 -0.854004
-2.35274 -6.40552 -0.849625
-2.60005 -6.10703 -0.841492
-2.50595 -6.23984 -0.836311
-2.34099 -6.45313 -0.854618
-2.60603 -6.2142 -0.842644
-2.34004 -6.49011 -0.856972
-2.46625 -6.36984 -0.85033
-2.44182 -6.52231 -0.860546
-2.56514 -6.41928 -0.849533
-2.44576 -6.53699 -0.849876
-2.42976 -6.61734 -0.861195
-2.42755 -6.65872 -0.855843
-2.53642 -6.7117 -0.850739
-1.55209 -4.03116 -1.72961
-2.23262 -4.62833 -1.43468
-1.71547 -4.54294 -1.43162
-2.37996 -4.92667 -1.5018
-1.98206 -4.7027 -0.82885
-1.73114 -6.07651 -0.84845
-0.886566 -3.46402 -2.49448
-0.909348 -3.47519 -2.46358
-0.97084 -3.53757 -2.50344
-0.840714 -3.42728 -2.41572
-0.762375 -3.37451 -2.3785
-0.907562 -3.50824 -2.43518
-0.84166 -3.44623 -2.39803
-0.987335 -3.5679 -2.45937
-0.825439 -3.47546 -2.38593
-1.06931 -3.63516 -2.47099
-0.984573 -3.59586 -2.43608
-0.918137 -3.53964 -2.39687
-0.857315 -3.48688 -2.34816
-1.08708 -3.64554 -2.44305
-0.964371 -3.55719 -2.33863
-1.11557 -3.66757 -2.39306
-0.971237 -3.621 -2.42549
-0.816803 -3.45587 -2.26263
-0.888046 -3.52029 -2.29167
-0.85556 -3.46124 -2.22632
-1.14 -3.69342 -2.34365
-0.983658 -3.58939 -2.29163
-1.92075 -5.36221 -1.01207
-1.01904 -3.60709 -2.24306
-0.924927 -3.54761 -2.23524
-0.901642 -3.50989 -2.14574
-1.0504 -3.66611 -2.30704
-0.940781 -3.56339 -2.20733
-1.10057 -3.67926 -2.24633
-1.03157 -3.62665 -2.2137
-0.978745 -3.57571 -2.1635
-1.15327 -3.74265 -2.28327
-1.02695 -3.63666 -2.20869
-0.916656 -3.54904 -2.0987
-1.13765 -3.69803 -2.19302
-1.05103 -3.6412 -2.18256
-0.984207 -3.59259 -2.14349
-0.975006 -3.60266 -2.14232
-1.24603 -3.79987 -2.28257
-1.06471 -3.6554 -2.15705
-1.27222 -3.81494 -2.23973
-1.08231 -3.66162 -2.13522
-1.0184 -3.62161 -2.08775
-0.981003 -3.56943 -2.02812
-1.13779 -3.91513 -2.4476
-1.04143 -3.62677 -2.0632
-1.01259 -3.57391 -1.99837
-1.23428 -3.77563 -2.16935
-1.1412 -3.74335 -2.14714
-1.01279 -3.58664 -1.98684
-1.28824 -3.83179 -2.20615
-1.24771 -3.78879 -2.14315
-1.3203 -3.89688 -2.25843
-1.27531 -3.84265 -2.20952
-1.12039 -3.70462 -2.06088
-1.06844 -3.65567 -2.01368
-1.3858 -3.9455 -2.28917
-1.21385 -3.74484 -2.07577
-1.41122 -3.95438 -2.2498
-1.34024 -3.90359 -2.22916
-1.26802 -3.8085 -2.1037
-1.36046 -3.91818 -2.19182
-1.08755 -3.66956 -1.98448
-1.19946 -3.71457 -1.97958
-1.44608 -3.97073 -2.19167
-1.24187 -3.77115 -2.02407
-1.12811 -3.62653 -1.85718
-1.34523 -3.8765 -2.10159
-1.48624 -4.02472 -2.24297
-1.38647 -3.92969 -2.15104
-1.30034 -3.83975 -2.04099
-1.25113 -3.79529 -1.99248
-1.1647 -3.69949 -1.89074
-1.4093 -3.93152 -2.1233
-1.35768 -3.88516 -2.07981
-1.55421 -4.0856 -2.2516
-1.41585 -3.94501 -2.10262
-1.13863 -3.65204 -1.82569
-1.60269 -4.13773 -2.29453
-1.50455 -3.99799 -2.09446
-1.1326 -3.66895 -1.81528
-1.43202 -3.9552 -2.07424
-1.12729 -3.67737 -1.81203
-1.67105 -4.19958 -2.29847
-1.63988 -4.14859 -2.23083
-1.24541 -3.77524 -1.8815
-1.29306 -3.82971 -1.91964
-1.24973 -3.78214 -1.87113
-1.18822 -3.74179 -1.83168
-1.30797 -3.84152 -1.89415
-1.26558 -3.79782 -1.84204
-1.12772 -3.70065 -1.79057
-1.54105 -4.01608 -2.03271
-1.4214 -3.92886 -1.96898
-1.368 -3.88461 -1.92926
-1.21072 -3.76062 -1.79495
-1.66238 -4.37973 -2.47619
-1.63963 -4.11652 -2.09703
-1.58084 -4.06799 -2.0795
-1.43948 -3.93835 -1.9404
-1.37595 -3.89377 -1.91243
-1.1537 -3.71951 -1.75224
-1.72197 -4.198 -2.21161
-1.59879 -4.07562 -2.04927
-1.32144 -3.85333 -1.87
-1.79765 -4.24765 -2.23084
-1.48531 -3.9913 -1.97832
-1.39201 -3.90787 -1.88261
-1.29106 -3.81845 -1.7996
-1.84906 -4.31711 -2.25391
-1.81021 -4.26166 -2.19775
-1.72012 -4.16165 -2.10159
-1.46687 -3.95602 -1.89388
-1.9052 -4.35727 -2.29391
-1.66147 -4.13315 -2.0598
-1.24268 -3.79169 -1.73875
-1.17056 -3.73959 -1.72015
-1.62187 -4.09232 -2.00323
-1.68137 -4.13901 -2.02746
-1.59468 -4.05124 -1.93371
-1.96471 -4.41672 -2.28752
-1.7762 -4.23489 -2.10523
-1.52576 -4.01486 -1.90937
-1.48714 -3.97485 -1.85392
-1.84578 -4.27255 -2.15247
-1.88295 -4.32983 -2.16805
-1.85312 -4.27585 -2.107
-1.44002 -3.94891 -1.79445
-1.26619 -3.81973 -1.69254
-1.2173 -3.77463 -1.65005
-1.98973 -4.42532 -2.23169
-1.50262 -3.98459 -1.82782
-1.33522 -3.8595 -1.72096
-1.56422 -4.04181 -1.83944
-1.51442 -4.00345 -1.79686
-1.39046 -3.91617 -1.7441
-2.00722 -4.41824 -2.18428
-1.72105 -4.16418 -1.94909
-1.27715 -3.83173 -1.67194
-2.05367 -4.49911 -2.25555
-1.23015 -3.7865 -1.62868
-1.63414 -4.07886 -1.85916
-1.2959 -3.84515 -1.64331
-1.90414 -4.31155 -2.04172
-1.41269 -3.9274 -1.71206
-1.35811 -3.88553 -1.67568
-2.06224 -4.48895 -2.1906
-1.57472 -4.05429 -1.81529
-1.58878 -4.06677 -1.78714
-1.37511 -3.89908 -1.64742
-1.66356 -4.1088 -1.79438
-1.47784 -3.98309 -1.72327
-2.09299 -4.75626 -2.4824
-2.12529 -4.53864 -2.21895
-1.85255 -4.27621 -1.9494
-1.49028 -3.99689 -1.69734
-2.17755 -4.59186 -2.2466
-2.13972 -4.54132 -2.18639
-1.81859 -4.23917 -1.88663
-1.59926 -4.07999 -1.76233
-1.45039 -3.96594 -1.63906
-2.20151 -4.5928 -2.19707
-2.11002 -4.50012 -2.10457
-1.61363 -4.08875 -1.73746
-2.16167 -4.54263 -2.14651
-1.67755 -4.12372 -1.76289
-2.31041 -4.70663 -2.24388
-2.17171 -4.5502 -2.11111
-1.34976 -3.89948 -1.5461
-1.41568 -3.82169 -1.44526
-2.08334 -4.45435 -2.02845
-1.98933 -4.37653 -1.94368
-1.88394 -4.29703 -1.88161
-1.36542 -3.84073 -1.46844
-2.3589 -4.7457 -2.28567
-2.0367 -4.42404 -1.97538
-1.74825 -4.19138 -1.74491
-2.36917 -4.7478 -2.25672
-1.43304 -4.00226 -1.62097
-2.13754 -4.5152 -2.04549
-2.84607 -5.08997 -2.54818
-1.53937 -4.04584 -1.60031
-2.27332 -4.65308 -2.16719
-1.39302 -4.02145 -1.64096
-1.4417 -4.01367 -1.60167
-2.76686 -5.08032 -2.52609
-1.64835 -4.12311 -1.66449
-1.59892 -4.08603 -1.62606
-2.43204 -4.80643 -2.25303
-2.39403 -4.75836 -2.19556
-2.81874 -5.02094 -2.39272
-1.72348 -4.16791 -1.66448
-1.61967 -4.10309 -1.58728
-3.00261 -5.16168 -2.50454
-2.49065 -4.85175 -2.27836
-1.56577 -4.05673 -1.56307
-2.93024 -5.13052 -2.49012
-1.73468 -4.17261 -1.64661
-2.45091 -4.80698 -2.20124
-2.40425 -4.75949 -2.15295
-2.92415 -5.15125 -2.48793
-2.10287 -4.46271 -1.84102
-2.86678 -5.10526 -2.42654
-2.82639 -5.0224 -2.35814
-1.99602 -4.37402 -1.7886
-2.67374 -5.11093 -2.49981
-1.888 -4.29782 -1.73024
-1.83844 -4.26944 -1.68735
-2.55687 -4.90067 -2.27769
-1.78279 -4.22476 -1.66832
-2.99869 -5.18423 -2.48872
-2.92677 -5.16275 -2.45656
-2.76065 -4.99716 -2.32316
-1.89816 -4.31271 -1.69591
-2.59924 -4.96689 -2.33261
-2.562 -4.90976 -2.25031
-2.41762 -4.75882 -2.09901
-1.57362 -4.08701 -1.52576
-2.04752 -4.42572 -1.80694
-2.62488 -4.94144 -2.28131
-2.24309 -4.57907 -1.93526
-2.15482 -4.50516 -1.84458
-2.00592 -4.39951 -1.7485
-2.62831 -4.94229 -2.26897
-2.99815 -5.20703 -2.45462
-1.59402 -4.1059 -1.48672
-2.28882 -4.63025 -1.96489
-2.25951 -4.59677 -1.90146
-2.10922 -4.47342 -1.79903
-1.957 -4.36957 -1.69978
-2.57536 -4.90771 -2.21202
-2.43413 -4.76279 -2.07383
-1.658 -4.13895 -1.51135
-2.65128 -4.93112 -2.2081
-1.86427 -4.29178 -1.63094
-2.58476 -4.90555 -2.18606
-1.815 -4.26089 -1.59205
-1.77315 -4.21399 -1.55996
-1.70103 -4.18845 -1.54091
-1.63982 -4.14648 -1.52327
-2.20168 -4.55319 -1.85152
-2.65868 -4.9299 -2.1857
-2.44829 -4.76358 -2.03753
-2.94792 -5.16074 -2.35499
-1.90984 -4.34497 -1.64236
-2.59718 -4.9068 -2.14709
-3.01518 -5.19116 -2.38657
-2.02478 -4.41858 -1.69968
-2.78229 -5.00644 -2.22834
-2.66524 -4.93265 -2.16109
-2.55138 -4.86432 -2.08942
-2.45929 -4.77457 -1.99749
-2.30479 -4.64871 -1.89104
-1.73369 -4.19778 -1.49512
-2.36597 -4.68158 -1.92712
-3.01736 -5.2074 -2.35079
-2.89554 -5.11237 -2.28696
-2.81953 -5.09616 -2.28316
-1.82872 -4.27341 -1.56244
-2.35582 -4.70532 -1.89764
-1.88249 -4.31406 -1.58463
-2.6115 -4.91055 -2.09964
-1.79958 -4.24286 -1.50014
-2.08934 -4.46426 -1.69009
-2.03525 -4.42551 -1.66928
-2.00313 -4.37967 -1.62336
-2.67587 -4.93872 -2.11938
-2.56383 -4.87201 -2.04558
-2.51527 -4.82526 -2.00834
-2.40164 -4.74869 -1.93571
-2.28178 -4.61139 -1.82324
-2.90259 -5.12112 -2.24454
-2.64992 -5.09497 -2.28751
-2.47322 -4.78207 -1.95457
-2.62654 -4.91293 -2.05227
-2.40964 -4.75949 -1.91185
-2.14409 -4.5184 -1.69305
-2.07123 -4.42154 -1.619
-2.69258 -5.05392 -2.19329
-1.86147 -4.2944 -1.5009
-2.52077 -4.8309 -1.98749
-2.43643 -4.74179 -1.89022
-2.96957 -5.16101 -2.25169
-2.0956 -4.47821 -1.66566
-2.69943 -4.94003 -2.04348
-2.57591 -4.87234 -2.01169
-1.06779 -4.53378 -1.9073
-2.48219 -4.78439 -1.93
-1.53152 -4.14328 -1.3901
-3.01617 -5.2316 -2.32196
-2.83888 -5.10333 -2.19702
-2.06514 -4.44733 -1.6017
-2.00235 -4.41843 -1.58482
-1.14977 -4.51291 -1.83593
-2.90935 -5.12555 -2.20978
-2.63348 -4.91772 -2.02615
-2.57837 -4.88107 -1.99479
-2.53587 -4.83463 -1.94408
-2.49341 -4.79309 -1.89293
-2.3436 -4.67599 -1.80058
-3.01891 -5.23886 -2.29797
-2.8063 -5.04214 -2.09531
-1.92155 -4.35272 -1.49498
-2.6434 -4.91849 -1.99635
-2.58368 -4.8833 -1.97768
-2.45016 -4.75748 -1.84143
-2.96233 -5.19485 -2.24005
