28.6435 11.5066 -1.67668
29.9002 12.4398 -1.04221
29.4153 11.8742 -0.776947
28.9102 12.0442 -1.49065
29.6419 12.6097 -1.745
28.9043 12.0979 -1.73924
29.2312 12.4069 -1.60104
30.6916 11.6566 -1.80117
29.5501 12.5161 -1.37413
28.7964 12.033 -1.49598
30.1519 10.6566 -0.591419
29.7495 12.512 -1.2466
30.126 9.65646 -0.98402
29.0111 12.106 -1.46199
29.8999 12.3974 -1.00659
29.5464 10.3553 -1.43839
29.0044 11.0825 -1.22523
29.6683 12.5439 -1.27428
30.548 9.10428 -1.67337
30.5575 11.804 -1.83008
29.0124 12.2354 -1.70846
28.6172 11.6583 -1.34983
29.8313 12.6379 -1.45103
29.7524 11.3615 -0.589973
29.0646 10.9365 -1.30986
28.7944 11.3431 -1.30664
28.6291 11.6208 -1.45522
29.1964 11.1201 -0.936115
30.1381 12.3754 -1.42883
30.8664 11.52 -1.38271
30.0763 11.388 -0.598709
28.6488 11.7291 -1.3428
29.9663 9.8681 -1.77642
31.583 10.5806 -1.6328
29.5981 10.9354 -0.628689
29.922 12.5754 -1.4916
29.5963 12.5154 -1.8233
28.7661 11.4606 -1.85266
28.662 11.8794 -1.59433
28.7254 11.4021 -1.73975
29.5708 12.5509 -1.39278
29.6623 12.5541 -1.13309
30.0591 9.74966 -1.55724
30.3137 11.5983 -0.620804
30.6999 11.7105 -1.36771
31.1754 11.1182 -1.48665
29.7067 12.5255 -1.18188
29.1241 12.2188 -1.30204
31.6011 10.4015 -1.88569
28.7867 11.3254 -1.39192
30.1439 11.6064 -0.638481
31.4139 10.85 -1.33659
29.6996 12.4472 -1.03333
29.9028 11.5972 -0.608906
31.3339 10.8907 -1.65395
28.8556 11.3562 -2.02896
31.6327 10.5148 -1.14978
29.5736 11.1561 -0.603676
29.8681 11.9309 -0.669823
31.0236 11.2991 -1.68966
30.7663 11.5995 -1.32275
29.0426 12.2443 -1.74402
30.2023 11.9291 -0.727341
29.1515 12.2819 -1.49053
28.7136 11.3886 -1.81921
29.8016 10.0354 -1.41565
29.5353 10.9323 -0.596268
29.2222 12.3576 -1.58226
30.3635 11.3044 -0.579327
30.8259 11.5428 -1.48805
28.6278 11.7885 -1.46004
28.79 11.4461 -1.10656
31.6234 10.5069 -1.18552
29.0189 12.1697 -1.50908
29.7894 11.8832 -0.686546
29.4537 12.3882 -1.09042
29.5095 12.4825 -1.28308
28.7159 11.4635 -1.28894
31.1014 11.2224 -1.40797
29.6078 12.4936 -1.14105
30.3109 12.1424 -1.68594
28.6822 11.8623 -1.43193
29.3923 11.2423 -0.662952
29.095 12.2452 -1.38599
30.241 11.4128 -0.58379
28.8909 11.9009 -1.08412
31.2408 10.9834 -1.11113
28.8269 11.8365 -1.07014
31.7885 10.4238 -1.74117
29.781 12.6245 -1.35711
28.927 12.1156 -1.57277
31.5919 10.4467 -1.90671
29.0571 12.1973 -1.39349
29.9919 12.3944 -1.09203
31.4714 10.6679 -1.09158
28.8 12.0084 -1.70067
30.2585 9.50479 -1.64646
30.0969 12.0899 -0.78981
29.7949 11.0395 -0.548878
29.2691 11.3148 -0.686256
29.8906 12.5941 -1.54613
30.0444 12.137 -0.8041
30.0859 12.4233 -1.34677
30.5574 9.05325 -1.84813
28.7944 11.3218 -1.8336
28.8367 12.0783 -1.56151
28.8921 11.9891 -1.1471
30.8935 11.4409 -1.15368
29.4 11.0251 -0.651577
28.6148 11.6447 -1.70924
29.4633 11.838 -0.673965
29.1821 11.2528 -0.701458
29.4921 12.4311 -1.10789
29.0504 12.2565 -1.60104
28.85 12.0086 -1.78811
30.026 12.46 -1.79427
30.1986 11.0662 -0.590256
29.2465 12.3279 -1.21585
30.8966 11.4578 -1.19208
30.3752 12.0089 -1.13972
30.0143 11.4182 -0.579247
31.0244 11.247 -1.10133
29.1237 12.2993 -1.58005
30.0819 9.71277 -1.53272
29.9839 11.5125 -0.588253
30.0696 12.4284 -1.31876
28.8729 11.1855 -1.39704
30.8203 11.3903 -1.00552
30.0862 11.9865 -0.696201
29.8593 11.9913 -0.694328
29.9395 12.5324 -1.43748
29.9551 11.2453 -0.571198
29.4753 10.5391 -1.08298
31.6082 10.5776 -1.59768
29.3956 10.6348 -1.08688
29.9339 11.7438 -0.65987
29.9713 9.62399 -0.968662
29.2364 12.3403 -1.52444
28.9366 12.1523 -1.60097
29.376 12.4272 -1.35406
29.2737 10.755 -1.1449
30.8439 11.416 -1.05742
28.9304 12.0544 -1.45738
31.8445 10.2487 -1.39875
28.9606 11.1325 -1.23708
29.0184 11.3297 -0.888145
30.1873 12.2934 -2.05022
29.6449 12.4575 -1.08312
29.1549 11.3578 -0.714016
29.1419 12.2494 -1.33219
29.2993 10.6841 -1.57367
30.5085 9.20834 -1.5514
29.9395 12.5615 -1.51878
30.1379 12.1283 -0.84919
29.7083 12.5671 -1.83275
29.2662 10.7104 -1.54262
29.1896 12.1488 -0.982948
29.1987 11.7492 -0.712513
28.9661 11.0977 -1.65645
28.9986 12.0474 -1.09443
30.1009 12.4095 -1.38763
29.3307 11.8492 -0.729656
31.2104 11.0473 -1.69934
31.2346 11.0394 -1.68479
29.2028 11.0948 -0.914463
28.7331 11.976 -1.69316
28.9603 11.9964 -1.08965
31.4389 10.5453 -0.938023
30.2552 9.49561 -1.42323
31.1092 11.1463 -1.10083
29.6994 10.8491 -0.574196
29.4421 10.4978 -1.48725
28.6891 11.8973 -1.44765
29.9589 12.3308 -0.991486
29.5284 11.8842 -0.694176
30.6734 11.7355 -1.44195
29.047 11.0296 -1.20856
30.9246 11.3994 -1.75384
30.2068 11.4919 -0.623135
31.4973 10.738 -1.44955
30.441 11.15 -0.549702
28.8177 11.5127 -1.03605
29.0965 11.6209 -0.725391
29.1813 12.2349 -1.14823
29.068 11.9953 -0.993694
29.9568 12.3234 -0.961979
30.6652 11.6624 -1.82472
29.4174 11.449 -0.625515
30.4034 11.657 -0.641594
29.5214 12.4477 -1.1067
29.8222 10.9728 -0.567329
29.6571 10.3418 -1.05659
29.3916 12.4889 -1.448
29.8653 11.4254 -0.616631
29.4375 12.295 -1.05012
29.1849 12.3488 -1.58202
29.8466 11.0427 -0.593716
28.9883 11.0953 -1.75648
29.2769 11.4216 -0.689533
29.1379 12.1224 -0.993187
29.2531 12.4227 -1.61629
29.6484 12.5186 -1.10215
30.7702 11.6329 -1.25218
29.0808 10.9228 -1.41016
29.201 12.2865 -1.2438
28.7416 11.4002 -1.43929
30.5136 11.8964 -1.68251
29.6261 11.6341 -0.645477
29.9382 9.88858 -1.61757
29.4041 10.5551 -1.52287
29.1878 11.7177 -0.737541
29.6721 12.6142 -1.65137
29.9996 12.4886 -1.48942
29.5326 12.5055 -1.29673
30.1382 12.3803 -1.97452
29.251 10.8006 -1.10081
30.2275 11.5032 -0.628654
29.3018 12.2655 -1.08593
29.7311 11.0948 -0.597271
28.8988 12.1363 -1.7392
29.2636 12.4279 -1.70631
29.2319 12.3064 -1.48013
31.8737 10.2648 -1.31247
29.3119 12.4779 -1.60453
29.9148 9.92355 -1.78901
29.0262 12.1164 -1.18034
30.9676 10.9571 -0.622829
29.6944 12.6119 -1.69045
31.6965 10.4467 -1.71581
29.8117 12.6281 -1.60562
29.388 12.5067 -1.54927
30.3823 11.9016 -1.03302
29.7742 12.5631 -1.3215
30.5582 9.14658 -1.26768
29.6377 12.6109 -1.58727
31.613 10.4261 -1.1005
30.1112 10.6907 -0.556515
30.974 11.3838 -1.26482
30.1006 12.4087 -1.78138
28.8867 11.1824 -1.27737
30.6998 11.6808 -1.14604
30.0641 11.5888 -0.587135
31.8228 10.3961 -1.6431
29.7011 12.5826 -1.35174
29.2515 11.2374 -0.68116
30.0946 9.72263 -1.20363
29.3728 11.0979 -0.65353
28.7979 11.547 -1.01307
31.5314 10.8982 -0.950069
30.4133 12.0475 -1.30078
29.2352 11.1991 -0.700314
29.8006 12.6255 -1.4902
28.6491 11.8434 -1.50138
29.5319 12.5953 -1.71063
29.7305 12.4956 -1.09975
29.6327 12.5231 -1.07571
29.6511 12.6289 -1.53566
30.8669 11.4871 -1.72992
28.9645 11.3199 -1.01822
28.789 11.425 -1.94864
29.8566 12.4149 -1.02762
29.4464 12.4673 -1.32899
29.5339 12.5798 -1.75417
29.0155 11.4427 -0.800816
28.8201 11.4237 -1.97808
28.6161 11.7129 -1.38542
29.0287 10.9883 -1.88572
31.62 10.5464 -1.67478
30.3238 11.5011 -0.594624
28.6738 11.8007 -1.37082
29.7064 12.4826 -1.05741
30.0784 12.1081 -2.03724
31.0798 11.2594 -1.20137
31.8094 10.3176 -1.24081
29.0143 12.1417 -1.49295
28.7956 11.4119 -1.94279
31.8469 10.407 -1.69098
30.4205 11.9702 -1.1135
29.9035 12.4813 -1.15484
30.0084 12.2344 -0.889702
30.5283 9.23572 -1.80254
29.1615 12.132 -1.05716
30.0843 12.3819 -1.99746
30.4689 11.8297 -1.04183
29.8587 12.4488 -1.05755
29.0149 12.1714 -1.24259
32.0305 9.99048 -1.39189
30.5481 11.1855 -0.615349
28.8064 11.9815 -1.74735
30.4467 9.24454 -1.34219
29.0899 12.28 -1.70288
29.9763 12.5355 -1.57765
29.4438 10.569 -1.09089
29.6339 12.5043 -1.16322
29.0886 11.9927 -1.01933
29.9699 12.5275 -1.64145
28.8867 11.1956 -1.68121
29.9595 12.3448 -1.98463
29.3844 10.5321 -1.42184
29.722 10.1459 -1.73527
29.2561 11.1814 -0.636822
29.4888 10.4373 -1.46656
29.7874 11.1261 -0.578625
29.5592 12.6107 -1.62286
30.0048 11.92 -0.661865
29.5109 12.5552 -1.73854
30.0027 11.2535 -0.580738
30.4661 11.9413 -1.21057
31.2867 10.9655 -1.6075
28.6251 11.5964 -1.73226
29.1883 12.2604 -1.19199
28.8085 12.0383 -1.73517
31.507 10.8747 -0.997643
31.6172 10.5625 -1.43707
29.1575 12.2521 -1.48216
29.0351 11.3451 -0.817646
29.5216 11.0465 -0.638283
29.6658 12.6108 -1.53752
30.5119 9.28793 -1.96171
29.0902 12.173 -1.14753
31.4918 10.5222 -0.917065
30.3314 11.4209 -0.589897
29.7033 11.2484 -0.620693
30.2564 12.2459 -1.99915
28.6547 11.5403 -1.6534
31.3031 10.9718 -1.40051
30.0445 12.4375 -1.34731
29.6219 12.6089 -1.71407
29.7474 12.1488 -0.744724
29.1592 12.2825 -1.35632
28.8459 11.2445 -1.6922
31.4462 10.7404 -1.77876
29.8819 12.5905 -1.41062
30.081 11.1524 -0.557323
30.0228 12.1988 -0.8596
28.8061 11.4824 -1.90849
29.3682 12.3516 -1.09034
29.7562 11.9946 -0.687424
28.7383 11.3918 -1.86444
31.3438 10.9227 -1.42055
29.2997 12.359 -1.45006
29.9346 12.4544 -1.10374
28.8594 11.9941 -1.34466
28.7056 11.8329 -1.78414
28.9995 12.2204 -1.63783
31.683 10.3209 -1.96916
30.9925 11.3373 -1.54376
29.8895 12.5185 -1.80957
28.7565 11.3527 -1.84884
29.3717 12.5333 -1.73895
29.5446 11.258 -0.621246
29.7816 11.738 -0.629509
29.1116 12.2827 -1.78635
31.0651 10.8862 -0.684978
30.5523 9.11899 -1.33455
30.9942 11.327 -1.65468
29.6421 11.8332 -0.68544
29.001 11.3863 -0.87426
29.496 12.5698 -1.64425
30.2506 12.2114 -1.5923
28.825 11.4734 -1.05774
29.9272 11.0093 -0.560131
29.7709 11.0915 -0.604969
29.7339 12.5359 -1.13927
30.4541 10.9958 -0.560188
29.1132 12.2332 -1.4912
30.238 11.9691 -0.901161
28.7001 11.7515 -1.28864
28.6875 11.899 -1.49228
29.2052 11.295 -0.696651
28.635 11.6478 -1.74065
31.6701 10.5086 -1.48288
29.3925 12.304 -1.07904
29.8365 12.6004 -1.45389
30.2815 11.7285 -0.655071
30.5082 11.8986 -1.65903
30.4838 11.9096 -1.13549
29.9802 11.1006 -0.561642
30.4508 11.944 -1.59771
30.5576 11.0782 -0.576168
28.7487 11.4044 -1.89966
29.3026 12.367 -1.32494
29.7335 12.6276 -1.44163
29.5954 12.6055 -1.49421
29.6012 12.0961 -0.735233
30.41 11.9666 -1.62526
30.3643 9.37769 -1.21684
30.2985 11.9203 -0.884403
31.495 10.8421 -1.05375
29.6041 12.6123 -1.68943
31.4226 10.803 -1.49842
30.0468 12.4484 -1.89986
29.902 12.3514 -0.981308
30.5501 9.00308 -1.55841
30.5408 9.20987 -1.89461
29.0826 12.0597 -1.08015
29.2296 12.4023 -1.65857
30.2975 12.1416 -1.6608
30.1638 12.3354 -1.85578
29.8919 11.698 -0.616009
29.5876 11.9783 -0.70911
28.7052 11.9323 -1.4588
28.7936 11.3836 -1.20837
31.3753 10.8733 -1.45654
30.7148 11.6605 -1.72831
28.6434 11.6099 -1.59724
28.6456 11.7694 -1.35746
29.2294 12.2142 -1.07189
30.0059 12.3473 -1.04528
28.6343 11.5643 -1.67673
30.0744 12.3873 -1.23648
29.3608 11.882 -0.757572
28.6906 11.9259 -1.5964
29.2558 12.402 -1.74368
29.6147 12.4815 -1.03709
29.1624 12.2426 -1.15866
29.0863 11.2433 -2.04551
29.6342 12.5306 -1.20564
30.5161 11.743 -1.04946
28.9061 12.0417 -1.44212
30.8051 11.4683 -1.03926
29.1563 12.0814 -0.983604
30.2593 12.2067 -1.94554
30.5306 11.9099 -1.21594
30.6662 11.7481 -1.33148
30.0091 12.4552 -1.30413
29.3339 12.4797 -1.58871
28.8919 12.0736 -1.41031
31.4807 10.781 -0.961334
29.1929 11.1074 -0.8186
28.8951 12.0002 -1.185
29.3486 12.433 -1.39865
29.6751 12.631 -1.56263
28.7318 11.9533 -1.603
29.2451 12.2481 -1.1014
29.174 11.0713 -0.936615
31.7547 10.3942 -1.8447
30.2597 12.0907 -1.04552
31.0544 11.2349 -1.14385
29.2943 12.3562 -1.29442
30.7761 8.92023 -1.48414
30.2839 10.9541 -0.552479
30.1603 11.7988 -0.631115
29.0928 11.4476 -0.738804
29.1618 12.2163 -1.12824
30.5168 9.11563 -1.50738
30.5976 11.8372 -1.34245
30.075 11.4722 -0.57513
30.9285 11.0099 -0.665516
29.1732 12.3086 -1.39123
28.7654 11.5173 -1.0355
28.6433 11.685 -1.68593
29.7071 11.8721 -0.658497
29.7679 10.1529 -1.088
29.3427 12.4876 -1.6337
29.391 10.5507 -1.49636
30.0592 11.6531 -0.64349
30.4442 11.2823 -0.587952
29.5199 12.5804 -1.51732
29.6048 12.0881 -0.709846
30.5957 11.8152 -1.26676
29.8604 11.8784 -0.684586
30.5615 11.4519 -0.635639
30.4278 11.9428 -1.55302
29.2215 12.2977 -1.26925
29.1237 10.9555 -1.12263
30.038 11.4087 -0.576736
30.3287 9.37152 -1.51474
28.7974 11.8389 -1.10769
29.9675 12.4684 -1.24746
28.8189 11.261 -2.00596
29.9103 12.5684 -1.46765
29.031 12.1215 -1.16915
29.6249 12.6173 -1.46316
31.3878 10.7891 -1.10486
29.6334 12.5052 -1.18082
29.3095 12.4515 -1.57192
30.2298 9.54892 -1.66943
29.0173 12.1298 -1.27053
28.8281 11.9344 -1.20341
30.2307 12.2343 -1.8995
31.0335 11.2853 -1.59919
29.0788 12.2361 -1.79176
29.6347 10.8524 -0.629177
28.6744 11.4962 -1.44703
30.1019 11.765 -0.635471
29.8769 10.9794 -0.590229
30.0612 12.0408 -0.698883
31.4681 10.7238 -0.99361
28.6784 11.5793 -1.29054
30.0687 9.71075 -1.27522
30.2795 11.7834 -0.689034
29.4255 11.5263 -0.665127
30.3979 9.31439 -1.3427
30.2671 12.1908 -2.0101
28.9424 11.1133 -2.00493
29.4884 12.4499 -1.14669
31.1427 10.7898 -0.700085
29.8748 12.5992 -1.51925
28.8289 11.3931 -1.99609
29.8718 12.0957 -0.734898
29.4464 12.5529 -1.63599
30.5231 11.9139 -1.45697
29.6033 12.4488 -1.07721
29.1093 12.2041 -1.47807
29.0837 12.1598 -1.18517
31.8569 10.2834 -1.94934
29.7479 11.9218 -0.656303
29.6596 10.8788 -0.580723
29.2862 10.6599 -1.41952
30.4314 12.0302 -1.3277
29.4978 12.4618 -1.25042
30.825 11.5369 -1.6496
28.8186 11.9321 -1.21773
28.7816 11.6365 -1.20779
29.3771 11.5928 -0.682137
29.0127 12.1664 -1.52564
29.7072 12.6134 -1.60533
29.2411 11.2992 -0.666927
28.7153 11.9336 -1.73848
29.1005 12.19 -1.19669
28.9662 12.0307 -1.12115
28.7855 11.6422 -1.04282
30.2428 10.9997 -0.579025
29.1249 12.2287 -1.24804
31.6988 10.202 -1.96037
30.1451 10.8565 -0.532494
29.5089 12.0424 -0.761505
28.6135 11.6432 -1.7582
29.1609 12.1607 -1.07516
29.0795 12.1328 -1.10259
29.3919 11.7909 -0.69593
30.1079 12.39 -1.73935
29.3833 12.4528 -1.39571
29.8395 12.5956 -1.59312
28.716 11.7732 -1.30267
28.9555 12.0709 -1.11927
31.5399 10.9266 -0.973179
31.0636 11.2692 -1.43734
31.7247 10.4137 -1.76296
29.3903 12.4415 -1.80593
29.644 11.8541 -0.668972
28.6489 11.6452 -1.34114
29.9866 11.6836 -0.641197
30.6188 11.784 -1.59071
29.7335 12.6462 -1.55087
28.9552 12.1319 -1.39939
31.7836 10.3325 -1.28053
31.2587 11.0062 -1.71983
29.9766 12.3394 -1.96852
30.5485 9.18149 -1.76346
29.2195 10.804 -1.17025
29.9783 12.4759 -1.27083
29.6804 11.6525 -0.648697
29.7255 10.1288 -1.42437
30.2948 11.8697 -0.773994
29.3708 12.4128 -1.44016
29.5014 10.3955 -1.44007
30.3141 11.3939 -0.6157
31.189 11.088 -1.61516
28.9174 11.2757 -1.09521
29.8848 11.466 -0.622318
28.6414 11.7954 -1.69375
31.7325 10.3967 -1.80986
30.3679 12.0875 -1.7779
29.5528 10.877 -0.62244
31.3457 10.9076 -1.24289
29.0396 12.253 -1.64036
30.0005 11.5385 -0.597
30.2923 9.45837 -1.62609
29.5303 10.3899 -1.44967
28.9989 12.1308 -1.19233
28.6377 11.8082 -1.49627
28.6173 11.7334 -1.60365
29.4949 12.297 -1.019
29.9054 12.4637 -1.08378
28.6719 11.5349 -1.40046
28.9035 11.4289 -2.01099
30.702 11.682 -1.29731
30.0838 11.3548 -0.559589
30.1367 12.0338 -2.03633
29.6235 12.5075 -1.05698
29.7627 11.1585 -0.604721
29.4296 12.5379 -1.54823
31.8024 10.2774 -1.98227
29.0295 12.1495 -1.29461
30.096 12.3544 -1.20118
28.6283 11.695 -1.591
29.7096 12.5501 -1.14032
29.2834 12.4239 -1.66764
30.2992 11.6603 -0.637035
28.9258 12.0654 -1.49748
30.6331 9.07446 -1.24666
29.2912 12.3382 -1.20123
30.1785 12.3177 -1.31858
30.5654 9.01868 -1.82056
31.7548 10.3947 -1.53539
29.3791 11.4912 -0.674313
29.5424 11.6368 -0.640614
29.364 12.4023 -1.45371
29.1298 11.3506 -0.780712
30.2153 11.7 -0.620003
29.2464 11.1274 -0.67749
30.5191 11.7885 -1.07916
31.444 10.7674 -1.53621
29.2907 12.3503 -1.24786
31.1366 11.176 -1.44694
29.3882 12.4882 -1.69131
30.6397 11.7449 -1.24402
29.7509 10.2514 -1.04548
30.9692 10.9677 -0.699104
29.2927 12.4014 -1.75246
28.8494 11.4745 -1.96924
28.9465 11.1499 -1.58508
30.015 10.913 -0.552814
31.8626 10.3005 -1.4521
29.6499 12.6241 -1.57489
29.1514 10.8818 -1.59075
30.3471 11.9339 -1.49751
29.7383 12.5498 -1.266
29.186 10.8136 -1.57276
31.4554 10.752 -1.19975
29.3722 11.8251 -0.685268
31.7016 10.445 -1.23737
29.551 12.6003 -1.59426
29.4915 12.376 -1.05914
30.0082 12.463 -1.78519
29.124 10.9232 -1.22461
31.73 10.3599 -1.11199
29.8183 11.2756 -0.584488
29.6783 10.5808 -0.875557
31.581 10.6162 -1.561
30.243 11.7975 -0.649712
31.2842 10.999 -1.3461
28.7825 11.9958 -1.40811
29.7903 12.5886 -1.36575
29.4786 12.3963 -1.0896
30.4745 11.9801 -1.3896
29.3312 11.3354 -0.675148
29.6703 12.4795 -1.0911
28.6891 11.4893 -1.49639
30.158 12.3401 -1.34223
31.7612 10.4164 -1.69354
29.3585 12.4814 -1.50026
29.403 11.3313 -0.62458
28.78 11.9443 -1.39341
29.1054 11.2104 -1.98267
28.9541 11.9055 -1.02307
29.701 11.6941 -0.653755
29.4939 12.5606 -1.6907
31.7276 10.4208 -1.27142
31.5005 10.7118 -1.25536
29.5095 10.4988 -1.07861
28.9798 12.051 -1.14759
29.3585 12.4268 -1.36238
28.9652 12.087 -1.13908
30.5392 11.8159 -1.14553
28.6288 11.7473 -1.64055
29.3291 11.4879 -0.650669
30.2653 11.6074 -0.607426
30.1741 11.8745 -0.658665
29.535 12.5031 -1.33969
29.76 10.215 -1.05183
29.7417 10.1198 -1.33375
29.7175 12.635 -1.4359
29.6613 11.7834 -0.677757
29.7717 12.6274 -1.46017
30.2791 11.6317 -0.618668
29.3739 12.4492 -1.4803
29.3992 11.544 -0.643661
30.0529 11.9768 -0.66848
30.5063 9.20285 -1.29014
29.4888 12.5674 -1.48477
31.7385 10.3634 -1.90152
30.1068 9.67596 -1.51011
30.2406 11.4618 -0.622871
28.8292 12.0683 -1.5413
29.6198 10.8085 -0.605156
29.1174 12.0998 -0.962696
30.4406 11.2497 -0.592827
28.6912 11.5327 -1.28622
29.1441 10.9786 -1.0817
29.4454 12.5482 -1.59823
29.0002 11.053 -1.64293
29.0325 12.248 -1.56408
29.7052 12.6074 -1.3903
29.5971 10.4149 -1.0629
28.7985 11.8375 -1.1504
29.6388 11.7966 -0.659328
29.6513 10.8494 -0.606548
30.1245 10.9893 -0.547977
28.9996 12.0947 -1.14753
30.2173 11.9898 -0.945599
28.7521 11.6066 -1.05445
30.0559 11.442 -0.589733
30.0383 11.2451 -0.599045
30.0379 12.4181 -1.95589
30.336 11.9617 -1.03788
29.5662 11.5685 -0.619942
29.7816 10.6838 -0.56702
29.5162 12.5828 -1.74764
30.0756 12.275 -2.05071
30.9742 11.314 -1.80485
28.7736 11.9069 -1.34607
28.788 12.0138 -1.4842
31.5689 10.6324 -1.33043
29.1582 10.8865 -1.65125
29.6872 10.5095 -0.803032
30.1387 9.63116 -1.38746
30.3449 12.12 -1.74335
29.6354 11.5631 -0.633156
29.3783 10.5932 -1.54309
31.6488 10.4675 -1.78175
30.8 11.5612 -1.60222
29.4294 11.4591 -0.632397
28.8192 12.0682 -1.58629
29.8863 9.93918 -1.29892
28.8633 12.0132 -1.38709
29.1426 11.3022 -0.734131
29.1813 12.141 -1.04406
29.2466 12.3042 -1.18828
30.4815 9.23566 -1.18187
29.0147 12.1807 -1.77149
29.6191 11.7225 -0.672657
29.9515 11.7144 -0.622738
28.7382 11.6223 -1.22498
31.7772 10.3504 -1.53948
29.646 10.5426 -0.78891
30.5494 9.15488 -1.73375
29.0494 11.5207 -0.786762
30.2852 11.8318 -0.737446
31.2288 11.0051 -1.1381
29.1222 12.2124 -1.49991
28.7413 11.5551 -1.18266
30.1628 12.3367 -2.01225
29.1171 10.9182 -1.1523
30.1247 12.383 -1.94889
29.3536 12.5086 -1.53724
28.7792 12.0032 -1.44917
28.8894 12.1086 -1.6997
28.9541 11.9442 -0.969685
29.7776 10.042 -1.45335
29.4111 12.5271 -1.55022
28.8255 11.8608 -1.16363
28.8989 11.3368 -1.07227
28.777 11.7093 -1.05221
30.1113 12.0873 -0.825802
30.2731 11.6883 -0.630955
30.7714 11.2036 -0.660667
28.9861 11.0955 -1.57418
31.0887 10.8551 -0.717468
29.0529 12.1771 -1.80365
29.1941 12.2104 -1.09005
30.0016 12.3232 -2.00885
28.8787 12.0169 -1.3478
28.8727 12.0131 -1.4137
29.5947 12.4816 -1.10201
28.7642 11.6998 -1.05584
30.1263 9.6669 -1.70276
28.833 11.9467 -1.29422
30.082 11.1906 -0.598007
28.9048 12.0189 -1.22265
29.3245 12.4138 -1.78339
29.5152 11.1305 -0.602745
29.0665 11.3284 -2.03516
29.1028 12.2968 -1.73937
28.7278 11.9293 -1.74442
29.4662 12.4224 -1.17271
29.5394 12.3916 -1.05686
29.0847 12.0977 -1.09181
30.2211 9.53989 -1.44671
29.8849 12.4493 -1.87156
29.194 12.3852 -1.5913
31.7855 10.4026 -1.86934
29.5065 11.8789 -0.721882
29.9776 11.6328 -0.613548
29.5596 11.7851 -0.657276
30.2245 11.5148 -0.597488
29.7516 11.7543 -0.627121
28.7377 11.7565 -1.14346
29.4503 11.4166 -0.662266
28.6488 11.6455 -1.64437
31.7358 10.4321 -1.78151
31.3225 10.886 -1.80487
30.9227 11.3719 -1.80828
31.289 10.9483 -1.75993
30.892 11.4419 -1.7664
31.6656 10.4981 -1.67598
31.6342 10.5517 -1.63608
30.8498 11.507 -1.68404
31.2121 11.0583 -1.64912
30.8022 11.569 -1.62926
31.1608 11.1388 -1.57749
31.5554 10.6492 -1.52552
30.7802 11.597 -1.59539
31.1365 11.1701 -1.54192
31.5259 10.6933 -1.48654
30.7447 11.6434 -1.54068
31.1148 11.1944 -1.50957
31.0874 11.2394 -1.47198
31.4704 10.7728 -1.41267
30.7113 11.6831 -1.49403
31.4455 10.8001 -1.37725
30.6916 11.7161 -1.46061
31.0368 11.3082 -1.3996
31.0108 11.3479 -1.36373
31.3802 10.8836 -1.28809
30.9897 11.3795 -1.33455
31.7843 10.3698 -1.20668
30.6284 11.8013 -1.36561
30.9657 11.4074 -1.29939
31.744 10.3881 -1.15652
30.9354 11.4331 -1.25304
30.5863 11.8578 -1.3027
31.3031 10.947 -1.19215
30.5571 11.8841 -1.25676
31.2749 10.9876 -1.13718
31.5658 10.8943 -1.00619
30.8701 11.4752 -1.15099
31.2353 10.9565 -1.08587
30.5145 11.908 -1.18778
30.8407 11.4892 -1.10402
31.2296 10.9641 -1.05439
30.4929 11.9542 -1.15422
30.8206 11.4738 -1.06657
29.7238 12.5514 -1.85423
30.4303 11.9112 -1.04509
28.7307 11.3946 -1.41867
30.9845 10.962 -0.651321
30.2202 11.9026 -0.696865
30.5444 11.4473 -0.607231
30.1956 11.8935 -0.678078
30.1954 11.8659 -0.650921
30.5487 11.2537 -0.574291
30.183 11.8114 -0.635681
30.5622 11.0987 -0.565514
30.1894 11.7281 -0.619099
30.1968 11.6271 -0.605988
30.1902 11.5287 -0.588242
30.1918 11.4129 -0.572319
30.1962 11.2898 -0.559799
28.8514 11.2382 -1.34791
30.1882 11.1501 -0.553406
28.9978 11.3288 -0.945381
30.2254 10.9058 -0.545204
29.3862 12.4336 -1.45332
28.9415 12.0398 -1.0893
28.8459 12.0816 -1.63611
31.2539 10.995 -1.17097
29.4828 12.5512 -1.44912
29.8363 12.5202 -1.26889
30.0696 9.72955 -1.71867
29.8872 10.5593 -0.598175
28.9111 12.0401 -1.24623
29.9555 11.3699 -0.609428
30.5298 9.07184 -1.47959
29.6858 11.0014 -0.57225
31.2563 11.0312 -1.35808
31.4465 10.7812 -0.946785
29.2451 12.3366 -1.34547
29.6451 12.628 -1.74326
29.9645 10.9075 -0.554951
30.4509 9.26105 -1.31167
29.8326 12.6215 -1.52121
29.1335 12.2459 -1.29122
29.1106 10.9041 -1.51728
29.2017 12.2899 -1.49561
29.7736 12.1546 -0.782661
30.9915 11.3168 -1.44249
29.3457 11.5373 -0.693237
30.5334 9.26788 -1.84578
30.5232 11.811 -1.10153
29.8036 11.2534 -0.575733
30.6349 11.7829 -1.29776
30.3316 9.61819 -0.91888
28.7973 11.4674 -1.89531
28.9149 12.0699 -1.5229
31.3806 10.5852 -0.883698
29.9425 9.92978 -1.8251
32.0527 9.98499 -1.42527
30.1382 9.67068 -1.184
31.7847 10.3567 -1.8959
29.3319 12.3766 -1.2544
31.0706 11.2317 -1.73209
31.7635 10.3408 -1.93749
30.0988 12.4087 -1.90447
31.7024 10.3892 -1.84666
30.0555 12.4566 -1.84081
30.3898 12.0565 -1.81073
31.177 11.0805 -1.78641
30.0352 12.4776 -1.79782
30.7454 11.608 -1.7684
31.1473 11.1252 -1.74837
31.5997 10.5268 -1.7304
32.1198 9.89172 -1.7229
31.1112 11.1881 -1.7051
31.5723 10.5919 -1.69449
32.105 9.8783 -1.6909
30.3421 12.0818 -1.72802
30.6916 11.6936 -1.69605
31.0825 11.2337 -1.66927
31.5428 10.6328 -1.65831
32.0866 9.8811 -1.66002
29.984 12.5245 -1.71099
30.669 11.7157 -1.66129
31.0578 11.257 -1.63287
31.5097 10.6758 -1.61639
32.0629 9.8895 -1.62218
29.9677 12.5394 -1.68349
30.6451 11.7484 -1.62783
31.4783 10.7202 -1.57825
32.0344 9.91794 -1.58499
29.9426 12.5581 -1.64031
30.2713 12.1835 -1.62334
31.888 10.279 -1.48685
30.5982 11.8057 -1.55995
29.9126 12.5805 -1.58281
30.2257 12.2522 -1.55716
30.5706 11.8497 -1.52326
31.855 10.2674 -1.42472
30.2052 12.2827 -1.52752
30.9234 11.4384 -1.45559
30.1812 12.2909 -1.48576
30.8955 11.4739 -1.4183
31.3147 10.9555 -1.38232
30.4995 11.9474 -1.42469
31.7515 10.4092 -1.30747
29.8539 12.6242 -1.48972
30.8398 11.552 -1.34658
31.2436 11.0427 -1.29235
30.8035 11.5959 -1.29776
31.2057 11.0816 -1.24162
31.6728 10.4744 -1.20083
29.8064 12.6328 -1.40476
31.1852 11.0979 -1.21253
30.393 12.0635 -1.26952
30.7379 11.6574 -1.20419
30.0554 12.4283 -1.29332
30.3749 12.0744 -1.24089
31.137 11.1375 -1.14489
30.034 12.4315 -1.25613
30.3498 12.0866 -1.20044
29.7652 12.605 -1.32479
30.0044 12.4389 -1.20569
30.3234 12.1005 -1.15834
30.6727 11.691 -1.10265
29.7519 12.547 -1.28968
30.3053 12.1184 -1.13206
30.6599 11.6856 -1.07903
30.2847 12.1118 -1.09452
30.6413 11.6669 -1.0412
29.7154 12.5884 -1.23285
29.9598 12.4149 -1.12187
29.6926 12.5731 -1.18975
29.7109 12.6224 -1.41384
29.9215 12.4629 -1.0667
30.224 12.0283 -0.967518
29.5914 12.4405 -1.04774
30.8485 11.104 -0.652103
30.0815 12.0806 -0.742641
30.8219 11.1007 -0.607742
30.3914 11.6091 -0.607567
30.3967 11.5232 -0.590233
30.0499 11.9219 -0.649487
30.0537 11.8415 -0.641193
30.4226 11.2877 -0.561253
30.0546 11.768 -0.617516
29.7546 12.0306 -0.690079
30.0591 11.6782 -0.601757
29.7467 11.8473 -0.63855
29.5005 11.9986 -0.739708
30.0922 11.2367 -0.557838
29.463 12.0096 -0.701916
29.7539 11.6645 -0.611973
30.1126 11.0825 -0.53717
29.757 11.5689 -0.597115
29.7625 11.4595 -0.58337
29.4556 11.7993 -0.655281
29.7724 11.3475 -0.579285
29.4575 11.6998 -0.642178
29.785 11.1949 -0.564953
29.4489 11.5915 -0.654106
29.4594 11.5065 -0.614105
29.8558 10.6391 -0.564037
29.4638 11.3873 -0.601982
29.4891 11.2513 -0.598587
29.4967 11.0039 -0.593235
30.2391 10.9915 -0.559662
29.5896 11.805 -0.659004
29.5789 12.5463 -1.34747
30.0412 9.74475 -1.39199
31.2527 11.0124 -1.5707
28.9967 11.369 -0.838909
29.7926 11.916 -0.661602
29.4949 12.5094 -1.7531
29.8587 11.7733 -0.63332
28.7096 11.9384 -1.54064
28.7524 11.6559 -1.08077
30.6564 11.6961 -1.7454
30.5547 11.8398 -1.72479
29.8514 12.5669 -1.33449
29.0809 11.5103 -0.771275
30.7816 11.5934 -1.35017
29.1078 12.256 -1.75356
29.9694 11.6244 -0.607616
28.8629 11.2401 -1.80452
31.1671 11.0904 -1.65765
29.8743 12.4872 -1.11258
29.5907 11.0157 -0.602512
29.973 12.3787 -1.06747
29.9416 12.3369 -1.94885
30.2387 9.49725 -1.52175
30.2224 12.245 -1.93327
30.1912 12.298 -1.89394
30.1271 12.3845 -1.81516
31.7118 10.2138 -1.98964
29.824 12.5655 -1.82222
30.0856 12.4517 -1.7513
29.7998 12.5984 -1.78659
30.0543 12.4516 -1.70202
30.483 11.9287 -1.74393
29.7828 12.6092 -1.7419
30.0512 12.4714 -1.69381
30.4682 11.9301 -1.71717
30.8869 11.4589 -1.71262
31.3995 10.8151 -1.73291
30.0367 12.4731 -1.66721
30.4598 11.9108 -1.69358
31.3652 10.8565 -1.69255
29.7419 12.6241 -1.69085
30.4378 11.9384 -1.66524
29.995 12.5157 -1.60506
31.796 10.393 -1.59862
29.5439 12.5379 -1.78316
30.3741 12.0319 -1.58643
30.7659 11.6147 -1.56531
31.7982 10.3459 -1.57351
29.7087 12.6249 -1.64116
29.9591 12.5463 -1.5476
30.3592 12.0314 -1.55907
31.2135 11.0415 -1.53638
29.4928 12.5814 -1.70599
29.6893 12.6303 -1.59883
30.3778 11.9304 -1.55177
31.7222 10.4346 -1.48914
30.3704 11.9101 -1.53009
31.6742 10.5077 -1.4452
31.6427 10.5383 -1.40731
29.8923 12.5879 -1.44475
31.0484 11.2957 -1.35124
31.6068 10.58 -1.36774
29.6433 12.6349 -1.49144
30.1867 12.3255 -1.36589
29.856 12.6015 -1.38413
30.5496 11.8874 -1.30256
31.0054 11.3435 -1.29974
31.5354 10.6689 -1.29234
29.2424 12.4038 -1.70387
29.8471 12.5867 -1.35554
30.1431 12.3428 -1.29768
29.5975 12.6035 -1.4435
30.5168 11.912 -1.25568
30.9475 11.4064 -1.2298
29.5906 12.5926 -1.39565
29.8251 12.5793 -1.31662
30.1038 12.3557 -1.24506
30.4931 11.9343 -1.22409
30.9328 11.4002 -1.20165
29.1959 12.3925 -1.634
29.3866 12.5063 -1.49416
29.8149 12.5672 -1.29402
31.4039 10.8115 -1.14341
29.8009 12.5753 -1.27177
30.4409 12.0012 -1.16228
29.8039 12.5011 -1.24738
30.0536 12.3892 -1.1839
30.4362 11.9675 -1.1395
30.8559 11.4537 -1.09545
29.5597 12.5295 -1.34211
30.0499 12.3864 -1.13858
31.3772 10.7472 -1.06557
29.1637 12.3745 -1.55437
29.5566 12.5287 -1.30133
29.7907 12.4936 -1.19733
30.4084 11.9571 -1.08709
31.3792 10.6921 -1.04083
29.3411 12.4144 -1.40253
29.7551 12.5371 -1.17652
30.0285 12.3766 -1.0947
30.3983 11.9408 -1.0628
29.5318 12.5063 -1.2461
29.3377 12.4003 -1.35188
30.7952 11.415 -0.974758
29.5119 12.4914 -1.24017
30.7939 11.3771 -0.955143
29.143 12.2547 -1.44946
29.3052 12.385 -1.34325
29.4946 12.4584 -1.19811
29.1075 12.2434 -1.44123
29.0992 12.2422 -1.35745
29.4644 12.4245 -1.11694
30.278 11.9369 -0.856884
29.0647 12.2451 -1.34612
30.2662 11.9249 -0.832066
31.162 10.788 -0.730469
29.0514 12.2021 -1.34764
29.0437 12.1878 -1.29767
29.4423 12.3369 -1.05075
29.2474 12.2828 -1.145
29.0431 12.1752 -1.26541
29.2236 12.2607 -1.13316
29.2086 12.2447 -1.10106
29.8871 12.1822 -0.785118
30.5962 11.4132 -0.644142
29.011 12.1468 -1.2348
29.853 12.2054 -0.75132
30.5802 11.4129 -0.617939
30.5801 11.3634 -0.595814
30.6164 11.2042 -0.584141
29.8519 12.0901 -0.69989
30.1924 11.7196 -0.626617
30.6618 11.0256 -0.57885
29.1761 12.1086 -1.02026
29.875 11.8574 -0.655018
29.1351 12.1059 -0.949429
29.5862 12.0366 -0.724812
29.899 11.7874 -0.640816
30.2661 11.2756 -0.570354
28.95 12.0013 -1.05741
29.893 11.6865 -0.62434
30.2914 11.143 -0.559013
29.5833 11.9409 -0.693588
30.3322 10.99 -0.557892
28.9153 11.9298 -1.02414
29.9172 11.4907 -0.595085
29.9344 11.3471 -0.597198
29.5963 11.7171 -0.643078
29.6029 11.6358 -0.628983
29.6135 11.5305 -0.614365
29.6245 11.4298 -0.601788
29.3223 11.6813 -0.673798
29.6441 11.2944 -0.592754
29.3439 11.5952 -0.659554
29.6548 11.1676 -0.59584
29.0943 11.5481 -0.747375
29.3477 11.3761 -0.63665
29.7477 10.7015 -0.594151
29.3653 11.2302 -0.628048
29.0885 11.3842 -0.713974
29.3627 11.1714 -0.608864
30.904 11.4429 -1.56531
29.9086 11.929 -0.687847
29.342 11.441 -0.650581
29.6318 12.6312 -1.45055
29.9885 12.3139 -0.987923
29.3596 10.5956 -1.5002
29.5707 11.4364 -0.642971
30.1144 11.2708 -0.585884
29.1949 10.8407 -1.14453
29.8562 12.6022 -1.48957
28.7607 11.9817 -1.72417
29.2197 12.1592 -1.034
29.3534 12.4391 -1.44158
30.5663 11.8265 -1.70198
28.722 11.9496 -1.5123
30.0077 12.4132 -1.14836
29.4815 11.2006 -0.614899
29.8238 12.6023 -1.55385
30.006 12.29 -2.04799
30.3209 12.1305 -1.99919
30.2883 12.1731 -1.96085
29.939 12.3925 -1.93332
29.9261 12.3778 -1.91487
30.1936 12.2793 -1.85831
30.1788 12.294 -1.82042
30.1626 12.2975 -1.79211
31.8221 10.3661 -1.90956
29.7729 12.6254 -1.7452
30.6006 11.7726 -1.77005
29.7454 12.6149 -1.73681
31.134 11.134 -1.78559
29.7526 12.6089 -1.68455
30.0381 12.4543 -1.64422
30.4763 11.9491 -1.64488
30.9553 11.3715 -1.61272
30.4373 11.9131 -1.55511
30.8721 11.4816 -1.53241
31.5387 10.6392 -1.59388
30.4082 11.9106 -1.50194
31.4803 10.7181 -1.54362
29.2827 12.4323 -1.74443
30.7811 11.6078 -1.44849
30.2234 12.2861 -1.38037
31.361 10.892 -1.44919
30.194 12.3169 -1.34541
29.6133 12.6196 -1.44611
31.2129 11.0862 -1.31871
29.4072 12.5259 -1.50841
30.1385 12.328 -1.25405
30.578 11.8404 -1.23341
31.139 11.1699 -1.24582
31.8341 10.3062 -1.274
30.5525 11.863 -1.20271
29.0258 12.2345 -1.69222
31.1083 11.1583 -1.18722
31.7656 10.3632 -1.1983
29.2015 12.3414 -1.55668
29.0494 11.3067 -1.99172
30.4888 11.8806 -1.10451
29.0393 11.2958 -1.96909
28.8374 12.0152 -1.76061
28.9799 12.1992 -1.60178
30.4738 11.8582 -1.06617
31.0138 11.2109 -1.0617
28.9684 12.1924 -1.57013
29.5134 12.4901 -1.20805
28.9436 12.1473 -1.55521
29.3418 12.3919 -1.30254
28.7781 12.0008 -1.65434
29.1326 12.2578 -1.39506
29.3053 12.3771 -1.29937
29.9834 12.2941 -0.944366
28.7482 11.9862 -1.59635
28.9362 12.0975 -1.497
29.9645 12.3024 -0.941414
29.0866 12.2101 -1.3373
28.7308 11.9595 -1.54753
29.0857 12.195 -1.29057
29.46 12.3705 -1.06194
28.8913 12.0523 -1.39552
28.708 11.9336 -1.49586
29.0953 12.1925 -1.24469
28.8779 12.0339 -1.35939
29.0452 12.1572 -1.23805
29.0412 12.1401 -1.20166
29.9164 12.1596 -0.787437
30.2515 11.836 -0.695107
28.8506 11.9864 -1.29363
29.2253 12.1958 -1.05447
30.7466 11.2195 -0.629894
28.6626 11.8385 -1.40859
29.0211 12.1038 -1.15523
29.8937 12.1015 -0.720467
30.7392 11.1979 -0.605438
28.8295 11.9482 -1.24439
30.2545 11.7428 -0.642685
30.7651 11.102 -0.591278
28.6482 11.795 -1.39067
29.9012 11.9986 -0.691448
29.1806 12.1534 -0.964264
29.9046 11.9572 -0.666214
30.3043 11.5315 -0.605511
28.8087 11.9023 -1.19523
28.9928 12.0209 -1.06822
29.9044 11.8746 -0.654549
28.6471 11.6905 -1.34256
28.9872 11.9833 -1.04982
29.9453 11.7903 -0.644775
28.6497 11.5991 -1.30437
28.9915 11.9567 -1.04757
29.6436 11.984 -0.697838
30.4019 11.1689 -0.568794
28.7857 11.7922 -1.09198
29.3889 11.9097 -0.747334
29.6645 11.7049 -0.635593
30.0482 11.2833 -0.568035
29.6974 11.5874 -0.632584
28.7629 11.6285 -1.03388
29.3907 11.7512 -0.690842
29.7447 11.4065 -0.602196
29.4025 11.6487 -0.663334
29.7381 11.2851 -0.585869
29.1525 11.6584 -0.750488
28.7301 11.4769 -1.23725
29.1464 11.6825 -0.738079
29.1607 11.5804 -0.708611
29.4596 11.3356 -0.629189
29.8769 10.7681 -0.565861
29.178 11.4032 -0.686569
29.5134 11.0513 -0.607658
28.707 11.4471 -1.44971
30.0196 11.7721 -0.666553
28.6164 11.6053 -1.49683
29.879 9.94034 -1.40666
30.3777 9.51349 -1.00201
30.0402 9.78433 -1.22445
29.1202 11.7046 -0.711746
29.0683 10.9939 -1.71482
28.6937 11.8398 -1.35847
29.2141 12.3122 -1.29961
31.486 10.8142 -1.00341
29.4661 12.5704 -1.7096
29.205 11.809 -0.71917
29.1137 12.2242 -1.25733
30.3091 12.1415 -1.99157
29.7583 12.5956 -1.79671
30.0573 12.443 -1.73068
31.4702 10.7658 -0.931339
29.7157 12.6086 -1.72692
30.6249 11.7523 -1.75203
29.6575 12.6162 -1.62631
31.3117 10.9048 -1.76674
29.4655 12.5265 -1.70863
31.8397 10.4222 -1.69529
29.2848 12.3829 -1.78547
29.6134 12.605 -1.54015
31.0789 11.2172 -1.60105
31.8127 10.4368 -1.66207
31.0165 11.2951 -1.55257
31.8043 10.416 -1.63253
29.8047 12.6043 -1.40086
30.1933 12.3095 -1.39259
30.8711 11.4894 -1.44897
31.7774 10.3915 -1.56984
30.8121 11.563 -1.40325
29.5655 12.5797 -1.42881
30.7525 11.6418 -1.36045
29.5592 12.5402 -1.40449
30.1049 12.3582 -1.27534
30.6656 11.7353 -1.28271
30.0675 12.3728 -1.22201
31.4444 10.7955 -1.33062
31.3923 10.8535 -1.28953
28.9855 12.2104 -1.63265
30.5396 11.8274 -1.13998
28.8369 12.0387 -1.74544
28.8059 11.4024 -1.98428
28.807 12.0291 -1.70361
28.949 12.1794 -1.58589
29.6924 12.4956 -1.13866
29.9646 12.3483 -1.03342
30.5109 11.7699 -1.0527
28.7621 11.4391 -1.90407
28.6539 11.6936 -1.80469
28.9326 12.1024 -1.53783
28.6535 11.742 -1.78799
29.4548 12.4003 -1.14026
29.6665 12.4269 -1.05221
29.9421 12.3179 -0.976257
31.3029 10.7044 -1.03591
28.6372 11.7372 -1.75456
29.2559 12.3366 -1.24504
28.624 11.7093 -1.75153
29.4402 12.3527 -1.08772
28.6369 11.5846 -1.70759
28.6843 11.8476 -1.39047
29.8852 12.0576 -0.715183
28.675 11.7566 -1.35533
28.8199 11.9175 -1.19894
28.9914 12.0012 -1.08767
30.3479 11.5324 -0.628147
29.9339 11.8564 -0.665798
28.8025 11.8944 -1.14143
29.6203 12.0144 -0.725971
28.6628 11.6273 -1.2909
29.6372 11.9446 -0.7122
30.4828 11.1996 -0.589561
28.99 11.9412 -1.00385
30.0094 11.6007 -0.625458
30.0404 11.4998 -0.611649
29.6741 11.7567 -0.661388
28.7975 11.7503 -1.04199
30.1474 11.1362 -0.582882
28.8064 11.5811 -1.01862
29.4272 11.6654 -0.682346
29.4567 11.4999 -0.645287
29.86 11.1439 -0.579811
29.4884 11.3975 -0.633598
29.8996 10.966 -0.590027
29.0257 11.3966 -0.839867
29.1859 11.5601 -0.705627
29.5178 11.2939 -0.629074
29.9724 10.7823 -0.573307
29.1957 11.4991 -0.691547
29.5585 11.1595 -0.622658
29.22 11.39 -0.691437
29.0397 12.185 -1.76647
29.0819 12.1503 -1.14723
30.5676 8.9895 -1.79139
30.3511 9.45578 -1.13491
28.6139 11.6908 -1.36644
29.0217 12.0114 -1.05123
30.3486 11.3707 -0.615849
29.646 10.2552 -1.79908
28.9688 12.1333 -1.36805
30.2145 12.2455 -1.96374
30.1282 12.3525 -1.9017
29.9172 12.5572 -1.70536
29.8657 12.5862 -1.64097
29.5832 12.6075 -1.64974
29.3995 12.5037 -1.73029
29.8005 12.6038 -1.53845
29.7556 12.6294 -1.48858
29.5314 12.59 -1.55602
30.1172 12.3871 -1.42474
29.192 12.3757 -1.73529
31.6895 10.4024 -1.78267
29.1928 12.3478 -1.73669
29.5043 12.5739 -1.50462
29.1846 12.3501 -1.69974
31.4047 10.7624 -1.63274
29.323 12.4467 -1.54652
28.9999 12.1927 -1.74239
29.1371 12.3274 -1.63469
29.3118 12.392 -1.49611
29.4761 12.5096 -1.39844
30.8613 11.4841 -1.3764
29.1455 12.343 -1.60192
29.677 12.5561 -1.28675
29.9483 12.4741 -1.22107
28.9795 12.1938 -1.7005
29.4621 12.4821 -1.35373
29.9469 12.4488 -1.19868
29.138 12.2892 -1.54456
29.4386 12.4541 -1.29505
28.9415 12.1559 -1.63271
29.2563 12.373 -1.40264
29.869 12.4694 -1.09018
31.9126 10.1749 -1.34234
28.7826 11.9624 -1.70115
29.422 12.4389 -1.24868
29.0966 12.1958 -1.44504
29.4082 12.433 -1.23841
31.7408 10.3647 -1.24278
29.2517 12.3424 -1.30001
29.2285 12.311 -1.29015
29.862 12.3783 -1.00732
31.4306 10.7576 -1.1062
29.3873 12.3814 -1.14966
28.6129 11.6964 -1.73301
29.592 12.3999 -1.03355
28.8942 12.0108 -1.45027
29.0457 12.1618 -1.34441
29.3747 12.3438 -1.0999
31.596 10.4191 -1.06869
31.5621 10.4392 -1.03439
31.5018 10.4991 -0.9939
29.3783 12.2859 -1.04772
28.6186 11.5398 -1.66129
29.0062 12.1103 -1.23917
29.3688 12.2671 -1.03815
29.1645 12.1914 -1.09621
28.8437 11.9539 -1.3274
28.9911 12.0941 -1.19067
29.8329 12.1342 -0.771893
28.8147 11.9106 -1.25145
29.1601 12.107 -1.03836
30.2495 11.8003 -0.684914
29.8225 12.0971 -0.727211
29.826 12.063 -0.706482
28.7933 11.8631 -1.1867
29.5577 12.0497 -0.732861
30.3739 11.4707 -0.610416
28.793 11.7863 -1.14167
30.4275 11.3531 -0.59798
29.719 12.0944 -0.710278
29.6052 11.8763 -0.682205
28.7606 11.762 -1.0724
29.6453 11.7489 -0.653378
28.7854 11.6109 -1.02824
30.1528 11.211 -0.564232
30.2346 11.0342 -0.556465
29.5291 11.275 -0.613377
30.0107 10.8358 -0.552734
29.1925 11.4372 -0.697834
29.6267 11.0194 -0.595669
29.2659 11.2393 -0.6506
29.6833 10.873 -0.586544
29.1614 11.1007 -0.959023
28.738 11.6843 -1.2197
28.616 11.7408 -1.40444
29.1633 11.7561 -0.756786
30.5384 8.99042 -1.64898
29.82 12.4502 -1.18038
28.6265 11.6482 -1.54418
29.0647 11.6178 -0.767593
29.3226 10.6497 -1.49977
30.0101 12.4261 -1.92808
29.9866 12.4377 -1.89148
29.965 12.4424 -1.86124
29.8247 12.5812 -1.76287
29.7821 12.5925 -1.70535
29.7308 12.6145 -1.64352
29.6821 12.6133 -1.56541
29.3261 12.4448 -1.75008
29.2903 12.4483 -1.69949
29.6404 12.6126 -1.49902
29.889 12.5641 -1.3894
29.8409 12.5576 -1.30998
29.2358 12.3897 -1.56045
29.3786 12.4829 -1.41921
31.7401 10.4152 -1.66101
29.7917 12.5339 -1.21352
29.229 12.326 -1.49617
28.8581 11.3741 -2.05449
29.205 12.2983 -1.45181
28.8777 11.2913 -2.05002
29.041 12.21 -1.5485
29.8148 12.4363 -1.16005
28.7559 11.9119 -1.7692
29.5405 12.4884 -1.20069
28.8143 11.3653 -1.98528
28.8454 12.0849 -1.60183
30.3118 12.0538 -1.08829
28.707 11.9252 -1.70066
29.0274 12.16 -1.4866
29.0216 12.1429 -1.46347
30.3241 12.0032 -1.05919
28.9984 12.133 -1.4451
28.8203 12.0563 -1.51703
28.7183 11.4034 -1.83752
28.677 11.9045 -1.59344
29.2988 12.3256 -1.15401
30.2611 11.9754 -0.940933
28.7945 12.0257 -1.4505
28.9531 12.0973 -1.34628
29.2939 12.3091 -1.13064
29.4881 12.3488 -1.04889
28.6479 11.8444 -1.54491
29.2868 12.2879 -1.10157
31.4714 10.7466 -1.02017
28.941 12.0772 -1.29863
29.2874 12.2457 -1.05994
31.4308 10.7422 -0.958088
28.7788 11.9389 -1.36018
28.9278 12.0625 -1.24591
29.2744 12.206 -1.04898
28.909 12.029 -1.20153
30.0796 12.0443 -0.739929
28.6266 11.7553 -1.43206
28.7584 11.8857 -1.29782
29.0843 12.0847 -1.05942
28.7461 11.8424 -1.24384
29.6805 12.1733 -0.723064
28.7344 11.8467 -1.21888
28.8875 11.9453 -1.10099
28.6447 11.6043 -1.33464
29.1234 11.9196 -1.00009
28.8923 11.8998 -1.0567
29.0521 12.0073 -0.955505
28.7283 11.7758 -1.15785
28.8954 11.8574 -1.04173
29.82 11.8513 -0.645039
28.7174 11.7172 -1.09811
28.7371 11.6936 -1.09092
29.5259 11.8492 -0.686195
29.9352 11.6108 -0.603188
29.2766 11.8604 -0.741898
30.1002 11.291 -0.564888
29.2844 11.7407 -0.694901
29.657 11.5574 -0.611568
29.703 11.4631 -0.601295
29.8605 11.1375 -0.563534
29.1342 11.5045 -0.694778
29.461 11.3537 -0.615604
29.1506 11.4482 -0.677231
29.179 11.3714 -0.662449
29.5564 11.1415 -0.590866
29.2188 11.2762 -0.651485
29.6204 11.0096 -0.58268
29.3488 11.0816 -0.669682
28.8392 11.2289 -1.86088
28.7635 11.3511 -1.41026
30.7227 8.99734 -1.23292
28.8354 11.2789 -1.28202
30.5934 9.11795 -1.16948
30.5362 9.02759 -1.66776
28.667 11.4708 -1.47008
28.6595 11.5325 -1.46429
28.9231 11.213 -1.17187
30.3337 9.40512 -1.60532
29.1235 12.3018 -1.77753
29.3638 10.6514 -1.12114
30.0117 12.4116 -1.98363
29.1181 11.2058 -0.829189
29.9331 12.0446 -0.691757
29.3904 11.7191 -0.701981
29.9093 12.5746 -1.64766
29.2242 12.3607 -1.76667
29.5142 12.5826 -1.53414
29.4759 12.5212 -1.41248
29.1155 12.3242 -1.56354
29.9298 12.4904 -1.14468
28.672 11.8165 -1.76419
29.0824 12.2174 -1.41367
29.056 12.2303 -1.38505
28.7431 11.9809 -1.56182
29.3653 12.3333 -1.06837
29.3675 12.3126 -1.05155
28.6172 11.7137 -1.58723
28.6233 11.6964 -1.54916
28.697 11.884 -1.40812
29.1685 12.1718 -1.06172
28.9758 12.0722 -1.11818
28.6225 11.562 -1.47142
29.1174 12.1261 -0.943409
28.6815 11.745 -1.26166
29.6488 12.0951 -0.749603
29.9577 11.9964 -0.676151
28.8067 11.8865 -1.11715
29.614 12.0524 -0.707516
28.7154 11.6263 -1.21575
28.7481 11.5767 -1.20673
30.1574 11.6776 -0.621517
29.4113 11.9268 -0.742256
30.2095 11.5922 -0.605045
29.7381 11.8142 -0.644283
30.2813 11.4879 -0.595894
28.8254 11.7102 -1.00929
30.3617 11.3542 -0.599621
29.4587 11.8097 -0.697594
29.8326 11.6525 -0.615738
29.8883 11.5606 -0.602409
29.4953 11.6976 -0.657677
29.9456 11.4678 -0.590313
30.0135 11.3602 -0.578171
28.9182 11.429 -0.9091
29.2514 11.632 -0.681103
29.6142 11.4839 -0.607388
30.1776 11.1096 -0.558506
29.2789 11.5721 -0.665928
29.6668 11.3929 -0.59531
29.5061 10.514 -1.04541
29.0223 11.5692 -0.736393
29.8669 11.0592 -0.561089
29.4557 11.2358 -0.613224
28.6503 11.8017 -1.73359
30.078 9.52905 -1.04997
29.9818 9.63699 -0.995659
29.7335 10.7411 -0.594322
29.7086 10.5489 -0.834881
29.2924 11.1413 -0.686714
28.8197 11.28 -2.02777
28.8819 11.2301 -1.26758
30.5145 9.14441 -1.53424
28.8114 11.3088 -1.59257
28.686 11.4858 -1.63203
29.6111 10.8365 -0.614006
28.8731 11.4228 -1.02875
28.6293 11.7218 -1.71643
28.6554 11.8622 -1.58186
29.2046 10.7978 -1.51669
29.9647 12.2552 -2.04167
30.0008 12.4695 -1.86304
29.8707 12.5632 -1.35655
29.0775 12.2582 -1.71226
28.9147 12.1163 -1.77312
29.0158 12.2355 -1.59132
29.8317 12.4999 -1.23765
29.8294 12.4818 -1.21478
29.1579 12.2918 -1.40031
28.8421 11.4618 -1.94376
28.8303 12.0583 -1.59055
28.8095 12.0464 -1.54917
29.7324 12.4517 -1.05992
28.645 11.6559 -1.79153
29.4752 12.417 -1.12373
28.783 11.9596 -1.42304
28.9288 12.0631 -1.30127
28.6895 11.4302 -1.67698
28.7178 11.3705 -1.66523
28.7658 11.8939 -1.33326
29.0761 12.1083 -1.12142
31.5178 10.8896 -1.02786
28.6272 11.7202 -1.39443
28.756 11.8625 -1.28818
28.6322 11.6976 -1.38655
29.7948 12.0926 -0.740517
28.6673 11.5674 -1.31499
29.958 11.8524 -0.678566
28.761 11.3858 -1.28275
29.5445 11.9655 -0.724182
30.0776 11.6935 -0.652061
29.3315 11.8661 -0.778839
30.5607 9.02383 -1.72939
28.7875 11.5692 -1.04716
30.5378 9.04343 -1.6975
29.7564 11.6432 -0.648716
29.8194 11.5561 -0.635555
28.9525 11.2948 -1.04406
29.0945 11.1062 -1.04105
29.1945 10.9611 -1.04458
29.5139 11.5206 -0.656498
29.3272 10.7734 -1.05411
29.2426 11.4794 -0.701927
29.64 11.3367 -0.629768
29.5875 10.4044 -1.07172
29.0858 11.3403 -0.797478
30.071 9.74875 -1.13307
29.1611 11.2028 -0.765892
30.1219 9.65717 -1.11766
29.4545 11.1475 -0.650433
29.9608 10.8944 -0.58017
30.0972 9.65985 -1.08463
30.0805 9.65417 -1.05511
29.6826 10.8159 -0.621384
29.8079 10.6441 -0.615837
28.6681 11.8925 -1.63146
30.2865 9.72495 -0.86253
28.6642 11.8833 -1.52241
28.8259 11.9102 -1.15786
28.6225 11.636 -1.49436
29.5903 12.5778 -1.74944
29.5956 12.5925 -1.77211
28.7633 11.3459 -1.71721
30.0339 12.4256 -1.96375
29.7411 12.6027 -1.82578
29.4208 12.5139 -1.77632
29.2083 12.3688 -1.78142
29.7253 12.6243 -1.40474
29.3136 12.4301 -1.55268
29.4792 12.5172 -1.42428
29.1159 12.314 -1.6048
29.4684 12.4883 -1.37875
29.2558 12.3809 -1.42743
29.125 12.2296 -1.52243
28.9183 12.1431 -1.59145
28.7174 11.7952 -1.82029
28.7482 11.9871 -1.62814
29.6307 12.4127 -1.05284
29.1795 12.2742 -1.21498
28.8684 12.0336 -1.40724
28.9451 11.0959 -1.87624
28.6357 11.5863 -1.48753
28.6904 11.8088 -1.35988
30.7556 11.3199 -1.03802
29.6957 12.1123 -0.774105
28.7682 11.6311 -1.27451
28.6957 11.6497 -1.24738
29.7186 12.0551 -0.732605
28.8043 11.2874 -1.38509
29.4868 11.9562 -0.788254
28.9502 11.0813 -1.39499
28.8299 11.7475 -1.04595
28.7459 11.5434 -1.15109
29.9297 11.8019 -0.672783
29.1945 10.7801 -1.41827
29.9984 11.7245 -0.65897
28.7534 11.5044 -1.1197
29.5826 11.7724 -0.687653
30.1473 11.5587 -0.631599
28.8468 11.3806 -1.09409
29.223 11.8129 -0.745373
29.6366 10.2356 -1.44189
28.9865 11.183 -1.08878
29.7541 11.563 -0.645947
29.9732 9.80496 -1.47607
29.0659 11.0779 -1.08287
29.8305 11.4737 -0.631767
29.2271 10.8687 -1.07543
29.9905 11.2922 -0.608688
29.3142 10.7406 -1.08144
29.4718 11.4638 -0.650208
29.5412 11.3797 -0.638668
29.6846 11.2008 -0.608974
29.7783 10.1748 -1.07214
29.3238 11.2415 -0.673027
29.9339 9.98697 -1.0798
29.3924 11.1541 -0.661743
30.1272 9.75827 -1.09413
29.4552 11.0392 -0.645046
30 10.853 -0.58857
30.3098 9.53812 -1.1033
30.4084 9.40784 -1.09612
30.1114 9.69678 -1.00751
29.8564 10.5875 -0.611538
29.5983 12.573 -1.3321
30.5472 9.13373 -1.50199
28.7216 11.4423 -1.34498
28.6696 11.8993 -1.54624
29.162 10.8951 -1.68986
30.0614 12.399 -2.01917
29.9767 12.4063 -1.95288
29.6257 12.5919 -1.80189
29.9035 12.6115 -1.67535
29.6807 12.6514 -1.50569
29.6228 12.6033 -1.39217
29.2475 12.4256 -1.63551
30.0193 9.79764 -1.57998
29.6196 12.5786 -1.3596
29.5849 12.5547 -1.29722
29.5637 12.5309 -1.24801
28.7456 11.6228 -1.85902
28.8866 11.1822 -2.00768
29.5313 12.4147 -1.07666
28.7642 11.9993 -1.44377
28.766 11.9394 -1.37728
28.9993 11.2403 -1.0449
28.7182 11.429 -1.60931
30.0434 12.166 -0.838821
28.7732 11.3624 -1.60423
28.8994 11.2107 -1.59356
30.0446 12.1063 -0.766285
29.0905 12.0266 -0.999462
29.612 12.0995 -0.774384
28.7159 11.51 -1.25769
28.7633 11.7187 -1.12109
29.7452 11.9324 -0.702717
29.2654 10.723 -1.50963
28.7583 11.4339 -1.22276
28.841 11.3237 -1.19796
30.5414 9.17102 -1.95653
28.8756 11.2723 -1.1815
30.0175 11.6638 -0.645203
30.5537 9.13583 -1.93397
28.845 11.5358 -1.00579
29.219 11.733 -0.789604
30.1054 11.584 -0.635025
30.5491 9.11331 -1.90328
28.9533 11.1661 -1.15523
28.8791 11.4875 -0.989933
29.5683 11.698 -0.679253
30.5702 9.06656 -1.87938
29.0102 11.0958 -1.1443
28.9132 11.4391 -0.973782
29.0687 11.0249 -1.13477
28.955 11.385 -0.960327
29.2409 11.6583 -0.724133
29.7592 11.4975 -0.635021
29.1845 10.8808 -1.11134
29.8426 11.4149 -0.621666
30.5632 8.95386 -1.74643
29.9551 9.84735 -1.39846
29.2484 11.0362 -0.899971
29.5213 11.3417 -0.649738
29.6031 11.258 -0.638309
30.3799 10.9303 -0.593323
30.2348 9.51526 -1.37863
29.5631 10.4373 -1.06612
29.6681 11.1847 -0.621006
30.3331 9.40152 -1.3749
29.3091 11.168 -0.664173
30.305 9.44327 -1.40399
28.7955 11.5906 -1.16755
29.6524 10.2226 -1.36908
29.7195 10.5529 -0.878273
30.0405 12.4091 -2.02251
29.5842 12.5657 -1.8076
29.2587 12.4281 -1.77048
29.4081 12.5459 -1.62965
29.368 12.4557 -1.48687
29.1692 12.3283 -1.56982
28.9646 12.192 -1.62893
29.3117 12.4298 -1.40595
29.3094 12.4122 -1.38284
28.6305 11.7804 -1.64312
28.7274 11.4493 -1.79651
29.214 12.2932 -1.15411
28.6271 11.7449 -1.59816
28.8151 11.2884 -1.70846
28.6166 11.668 -1.49709
28.8391 11.9758 -1.24947
28.6449 11.5905 -1.43656
28.6464 11.5712 -1.41559
29.0894 10.9676 -1.6436
28.6797 11.5111 -1.38087
29.0001 11.9895 -1.00419
30.5396 9.17218 -1.84756
28.7028 11.4741 -1.36216
28.8204 11.8585 -1.09019
28.7499 11.4035 -1.32988
28.8431 11.7992 -1.04118
29.2175 10.7686 -1.55571
28.7632 11.5745 -1.11471
29.3038 10.6605 -1.52651
28.9141 11.1866 -1.2509
30.5033 9.37997 -1.94006
28.8617 11.4305 -1.04433
30.5072 9.33862 -1.8968
28.9118 11.3745 -1.02911
30.531 9.29697 -1.87661
29.0937 10.9769 -1.19677
29.1265 10.9308 -1.17747
29.092 11.6898 -0.72366
29.1859 11.6106 -0.715382
29.6763 10.1795 -1.38314
29.7975 11.4226 -0.605331
29.7455 10.0918 -1.35819
29.3266 10.6978 -1.13014
29.8849 11.3473 -0.590702
30.534 9.1431 -1.70197
29.3861 11.4031 -0.649776
30.1329 11.149 -0.568443
30.5537 9.07513 -1.64632
30.5497 9.04092 -1.60195
29.9492 9.85049 -1.3046
30.0134 9.77866 -1.29264
29.8328 11.0059 -0.583946
30.1594 9.61435 -1.26418
30.2139 9.54501 -1.24398
29.4718 10.9527 -0.634373
30.1568 10.7434 -0.56797
30.3159 9.44144 -1.23737
29.7431 10.449 -0.776543
30.432 9.30096 -1.20294
29.9547 10.5292 -0.597141
30.3155 9.65503 -0.945614
30.7486 8.96582 -1.16546
29.2153 10.7998 -1.62886
28.8826 11.4085 -2.02111
28.7026 11.9374 -1.62055
28.8454 11.271 -1.82367
28.6469 11.8288 -1.44204
28.9156 11.1891 -1.79593
28.9382 11.1561 -1.77917
28.6621 11.5438 -1.53624
29.0266 11.0415 -1.73036
29.1719 10.91 -1.71725
28.6838 11.6695 -1.28352
29.1739 10.8469 -1.64417
29.2451 10.7504 -1.59937
28.8968 11.1808 -1.32155
28.9309 11.1423 -1.30736
28.966 11.1008 -1.2903
29.0195 11.0478 -1.27671
29.0456 11.0102 -1.2559
30.0307 9.77991 -1.73824
29.1658 10.8789 -1.21059
29.0505 11.1924 -1.03238
29.2258 11.0473 -1.01295
30.1844 9.60297 -1.68681
29.692 10.174 -1.34977
29.4129 10.6002 -1.10537
29.7826 10.0699 -1.31414
30.5011 9.2504 -1.59419
