33.9649 31.2766 -0.671864
33.997 31.3126 -0.640751
34.0882 31.6605 -0.571304
34.0862 31.7414 -0.585289
33.6508 31.2432 -0.929119
33.2897 31.5382 -1.20052
34.0339 31.2937 -0.645119
34.0979 31.4454 -0.597466
34.1226 31.6351 -0.56181
33.6761 31.2376 -0.945175
33.3367 31.537 -1.20414
34.1419 31.74 -0.581528
33.7282 31.1284 -0.911369
33.3518 31.7107 -1.18698
34.1439 31.7136 -0.574051
34.1472 31.8949 -0.581001
34.0336 32.449 -0.645634
33.3452 31.7299 -1.21081
34.1464 31.5452 -0.592499
34.1667 31.6948 -0.565475
33.35 31.5479 -1.24389
34.0101 32.6119 -0.674973
33.0709 32.0332 -1.41384
34.1092 31.4289 -0.64325
34.1297 31.479 -0.610619
34.167 31.6142 -0.577202
34.2469 31.6202 -0.515793
34.0804 31.3531 -0.654816
34.1897 31.6048 -0.593269
34.1258 31.4016 -0.640297
34.1882 31.5281 -0.600388
34.0645 32.5627 -0.673851
33.3112 31.7649 -1.27168
34.1501 31.4468 -0.640266
34.1468 31.4807 -0.623848
33.1435 32.1136 -1.41414
34.2357 31.8303 -0.573353
34.2291 31.9269 -0.568668
33.3801 31.7276 -1.25404
33.0906 32.0495 -1.48994
33.0243 30.2126 -1.01419
33.1549 32.1084 -1.4451
34.2371 31.5737 -0.59309
34.3061 31.6517 -0.515614
34.245 32.0343 -0.587551
33.6322 31.2857 -1.06536
33.3716 31.5342 -1.26016
34.2536 31.9077 -0.58979
33.3548 31.5438 -1.29562
34.1832 32.4329 -0.637135
33.1403 32.1231 -1.45082
34.2689 31.8035 -0.567471
34.1042 31.8644 -0.974667
34.2615 32.0061 -0.58083
33.7715 31.1249 -0.964462
34.2386 32.2437 -0.609154
33.173 32.1105 -1.44765
34.2042 31.529 -0.626701
34.2906 31.7065 -0.579117
35.1228 31.8165 -1.4126
34.313 31.7599 -0.543381
34.2753 31.8874 -0.584663
34.1988 32.5365 -0.657745
33.0905 32.0616 -1.5262
33.1554 32.1273 -1.48418
32.7645 31.8007 -1.33926
33.2609 32.1612 -1.39244
34.2345 31.5099 -0.640244
34.2884 31.99 -0.584908
34.2894 32.1933 -0.597328
34.2479 32.3944 -0.639267
33.3319 31.6739 -1.34171
34.1915 31.447 -0.658306
33.7094 31.1666 -1.04349
33.3226 31.4841 -1.3647
34.2548 32.3593 -0.622551
33.3615 31.7607 -1.33273
34.2764 31.5586 -0.608406
33.1919 31.6692 -1.47975
34.2833 32.3306 -0.617786
33.373 31.6536 -1.33426
34.2519 31.5624 -0.615326
34.3314 31.9367 -0.574623
33.1151 31.722 -1.55622
33.3234 31.693 -1.39458
33.3335 31.789 -1.38235
33.1386 31.7125 -1.5573
34.3147 32.2974 -0.610157
33.2928 32.1613 -1.43934
34.3538 31.7607 -0.58902
33.3664 31.6691 -1.37792
34.294 31.5533 -0.648964
34.332 32.4062 -0.622757
33.3761 32.218 -1.40146
34.3844 31.9041 -0.571842
34.4021 31.9846 -0.568233
33.3352 31.4931 -1.42125
33.0834 31.9887 -1.653
33.3819 31.6694 -1.40361
33.2283 32.0044 -1.55757
34.3439 31.6012 -0.643375
34.4427 31.9498 -0.566494
34.2046 31.4107 -0.739704
34.3193 32.7384 -0.712097
33.2574 32.1084 -1.56725
34.4508 31.8547 -0.578438
33.2798 31.5428 -1.53253
34.145 31.2859 -0.791412
33.3091 32.0733 -1.54349
34.3451 31.5593 -0.658146
33.2665 31.554 -1.55657
33.2987 31.6437 -1.55516
34.3938 32.5059 -0.676796
34.3791 31.5914 -0.650074
34.4471 31.7851 -0.594505
33.2291 31.5803 -1.60262
33.2744 31.7661 -1.57583
33.1964 31.6041 -1.6458
34.4143 32.5931 -0.677956
33.3277 32.071 -1.56523
33.2471 31.582 -1.6408
33.3547 32.0534 -1.55533
35.0663 31.7758 -1.43621
34.4235 31.6398 -0.639549
33.306 31.4393 -1.56777
34.5248 31.9793 -0.569027
33.3439 31.6224 -1.54844
34.4928 32.3908 -0.638954
34.2959 31.4392 -0.745781
34.3904 31.59 -0.682983
33.331 31.429 -1.56519
33.3726 32.0486 -1.56932
34.2445 31.3833 -0.791367
33.3474 31.632 -1.59251
33.375 32.051 -1.58042
34.3387 31.496 -0.753819
33.3337 31.4314 -1.58162
34.5276 32.3427 -0.631336
33.4173 31.9066 -1.54774
34.3884 31.554 -0.700401
33.31 31.4482 -1.61623
33.0968 31.9231 -1.85246
33.468 31.762 -1.50678
34.3058 31.4478 -0.786369
34.3203 31.4299 -0.760365
34.4363 31.5741 -0.700459
33.2917 31.5698 -1.66819
33.3429 31.6468 -1.6444
33.4615 31.8847 -1.54982
34.5585 32.4461 -0.652596
34.5854 31.9105 -0.604862
34.4047 31.5278 -0.735756
34.5946 32.4294 -0.65686
34.278 31.3391 -0.842209
33.2946 31.5771 -1.7058
33.3231 31.6668 -1.68977
33.5441 31.6229 -1.50684
33.5365 31.7294 -1.51022
34.4922 32.7434 -0.776661
34.3002 31.3842 -0.841507
34.339 31.4345 -0.805206
33.3159 31.6754 -1.71182
33.5574 31.7178 -1.50518
34.6515 32.2011 -0.608128
34.3833 31.5033 -0.758755
34.4498 31.5759 -0.726669
34.4519 31.6574 -0.723328
33.5971 31.5934 -1.48919
34.5605 32.6464 -0.747669
34.4042 31.4858 -0.79129
34.4899 31.6384 -0.742008
33.214 31.7552 -1.85227
33.5543 31.8473 -1.56401
34.3977 31.4671 -0.775635
34.4391 31.5521 -0.747517
33.6429 31.5983 -1.49685
34.5766 32.6313 -0.75098
34.3293 31.3772 -0.851658
34.4757 31.5624 -0.736954
34.1099 31.0723 -1.0037
33.6385 31.678 -1.50734
33.5998 31.8134 -1.56124
34.4456 31.5303 -0.783634
33.6591 31.5602 -1.47472
34.6401 32.5578 -0.74559
32.5307 30.1328 -1.15181
34.1324 31.0649 -1.0164
34.7433 32.1303 -0.613682
33.6394 31.7943 -1.55846
34.3427 31.3778 -0.877914
34.3765 31.427 -0.848938
34.1777 31.11 -1.00805
33.6924 31.6492 -1.50081
34.2758 31.34 -0.934044
34.6329 32.5779 -0.761265
34.1359 30.9952 -1.04688
34.2273 31.1563 -0.957115
34.7422 32.2521 -0.650295
34.4416 31.4812 -0.83218
34.5229 31.6194 -0.752865
34.0052 32.4987 -1.34758
33.6577 31.9027 -1.58659
34.547 31.7015 -0.78249
34.0682 32.5533 -1.3058
34.6995 31.8678 -0.641506
34.7053 31.936 -0.640171
34.2552 31.2443 -0.999947
34.4946 31.5517 -0.795197
34.5365 31.6134 -0.761536
34.0042 32.5132 -1.37449
34.079 32.5478 -1.31147
34.2774 31.2064 -0.95826
34.7579 31.9856 -0.634285
34.258 31.3024 -0.990604
34.4934 31.5263 -0.824936
34.0594 32.4557 -1.34539
34.1957 31.0924 -1.04334
34.3031 31.253 -0.956562
34.7426 32.4352 -0.732254
34.4942 31.4987 -0.840557
34.1803 31.0505 -1.05276
34.7724 32.2374 -0.673637
34.451 31.3795 -0.84444
34.1077 32.4062 -1.32179
34.7453 32.3014 -0.72168
34.5116 31.5764 -0.830696
34.1446 30.9874 -1.10054
34.3319 31.2521 -0.954632
34.2332 31.095 -1.05729
31.8491 30.2504 -1.28456
34.2509 31.1412 -1.03743
34.2881 31.2036 -1.00743
34.2962 31.2437 -0.993538
34.3931 31.3481 -0.956112
34.1595 32.3603 -1.31094
34.195 32.5839 -1.31829
34.1925 31.0416 -1.09663
34.3651 31.3116 -0.958431
32.0822 29.8409 -1.28938
34.2282 31.6309 -1.14918
34.4577 31.4528 -0.892513
34.5821 31.6039 -0.816032
34.1759 32.3455 -1.30703
34.6044 32.9579 -1.01455
34.2496 32.5193 -1.28584
34.8203 32.3394 -0.718945
34.6304 32.9145 -0.998051
34.4855 31.4588 -0.907166
34.5935 31.6086 -0.846043
34.2915 31.1525 -1.0528
34.6608 32.8599 -0.974148
34.5115 31.4937 -0.891956
34.147 30.9841 -1.1453
34.6117 31.6731 -0.827312
34.2435 31.0873 -1.09361
34.2972 31.1826 -1.03062
34.5472 31.4944 -0.895199
34.6247 31.6614 -0.823753
34.3978 31.2932 -1.001
34.4214 31.3603 -0.97028
34.2343 32.312 -1.33165
34.4704 31.3999 -0.94104
34.2731 32.1478 -1.29065
34.7925 32.643 -0.894371
34.2975 31.1372 -1.08841
34.6063 31.6167 -0.886513
34.4397 31.3405 -1.00673
34.5534 31.4858 -0.941257
34.2974 32.2592 -1.32563
34.6472 31.6774 -0.89603
34.8674 31.9628 -0.730404
34.2828 31.1033 -1.14721
34.4495 31.2991 -1.04111
34.6435 31.5947 -0.912323
34.3974 32.1721 -1.27509
34.3895 32.1659 -1.28494
34.3417 31.1514 -1.14595
34.4939 31.3427 -1.04258
34.5428 31.4361 -0.993008
34.6015 31.4989 -0.942272
34.6288 31.5248 -0.908745
34.6516 31.5924 -0.930485
34.1977 30.9975 -1.24932
34.3787 32.459 -1.37465
34.8889 32.5251 -0.885807
34.6593 31.6848 -0.932587
34.2942 31.1029 -1.1987
34.9052 32.4979 -0.875656
34.5368 31.407 -1.0094
34.3625 32.3684 -1.41002
34.6003 31.4846 -0.993896
34.7022 31.6528 -0.933151
34.4534 32.375 -1.33965
34.9872 32.1855 -0.758465
34.9447 32.4429 -0.864288
34.5932 31.451 -1.01652
34.2052 30.9982 -1.2923
34.3924 31.1864 -1.19753
34.541 31.3444 -1.09681
34.6954 31.537 -0.995934
34.7062 31.5857 -0.989487
34.8554 31.7841 -0.905136
34.5661 31.3792 -1.07716
34.3023 31.0902 -1.29474
34.9021 31.8392 -0.90728
34.6766 31.4831 -1.35879
34.7589 31.6285 -0.980953
34.2843 31.0496 -1.34895
34.3279 31.0992 -1.29332
34.4053 31.1833 -1.24171
34.5543 31.3358 -1.14809
35.0508 32.359 -0.910973
34.8847 31.7593 -0.907379
34.3735 31.1482 -1.26526
34.6489 31.4452 -1.08638
34.2109 30.9995 -1.3935
34.7057 31.5201 -1.038
34.237 31.0064 -1.39224
34.904 31.7813 -0.955162
34.3343 31.0992 -1.34883
34.9286 31.815 -0.907616
35.0309 31.9958 -0.857849
34.6413 31.4304 -1.13871
34.2913 31.0485 -1.38851
34.4286 31.1942 -1.29709
34.7001 31.4874 -1.09262
34.7238 31.5172 -1.06475
34.794 31.6192 -1.02234
34.8654 31.7203 -0.978378
34.2413 31.0089 -1.44547
34.7362 31.5213 -1.0989
35.0094 31.9494 -0.924698
34.7297 31.5154 -1.09319
34.3011 31.0619 -1.4416
34.4924 31.2491 -1.29555
35.0348 31.9127 -0.91428
34.4488 31.2042 -1.34849
34.5777 31.3397 -1.19714
34.6599 31.4322 -1.18704
34.5935 31.3352 -1.24342
32.8998 29.8015 -1.93201
35.1268 32.3273 -0.978771
34.4088 31.1547 -1.39497
34.5461 31.2849 -1.28751
34.6374 31.3802 -1.241
34.3081 31.0625 -1.49645
34.2564 31.0133 -1.54258
34.8104 31.5721 -1.14912
35.1641 32.1235 -0.931728
34.6052 31.3314 -1.28236
34.8851 31.6655 -1.08852
34.5118 31.3434 -1.39804
34.6984 31.4283 -1.24498
34.7977 31.5523 -1.14202
34.8566 31.6241 -1.13683
34.2459 31.037 -1.59208
34.3042 31.0718 -1.54655
34.7829 31.53 -1.19766
34.4216 31.161 -1.44516
34.2595 31.3953 -1.72809
34.2474 31.0428 -1.6534
34.2912 31.0797 -1.60041
34.8187 31.5805 -1.18504
35.0258 31.8108 -1.05688
34.5986 31.3888 -1.39228
34.7558 31.4742 -1.24181
34.3483 31.2287 -1.60866
34.5565 31.3168 -1.40543
34.8662 31.6299 -1.17694
34.9899 31.7562 -1.10335
35.0741 31.8583 -1.05
34.5528 31.3418 -1.42803
34.7116 31.4432 -1.29331
34.8072 31.528 -1.24073
34.655 31.4107 -1.36063
35.0432 31.8177 -1.10286
34.3285 31.2561 -1.69525
35.1293 31.9094 -1.0476
34.6426 31.3889 -1.40004
34.7036 31.4616 -1.35214
34.2979 31.0842 -1.68732
34.4916 31.2321 -1.54101
34.779 31.4672 -1.27235
35.2067 32.2006 -1.09058
34.6924 31.4114 -1.39401
34.7225 31.447 -1.34924
35.0587 31.828 -1.14095
34.7479 31.533 -1.39274
34.5917 31.3152 -1.47968
34.6452 31.3586 -1.43681
34.6873 31.4408 -1.38953
34.8395 31.5332 -1.29618
35.2245 32.1956 -1.10968
34.7357 31.4481 -1.40776
34.5375 31.244 -1.54455
34.6034 31.3325 -1.49551
34.6367 31.3684 -1.47408
34.687 31.393 -1.43951
34.7898 31.4943 -1.3987
34.6025 31.3379 -1.54068
33.3945 30.8748 -0.661026
34.3199 31.1896 -1.81152
34.5231 31.2071 -1.58824
34.5523 31.2771 -1.59275
35.1369 32.5753 -1.46533
34.6209 31.3982 -1.56074
34.8022 31.5991 -1.44798
34.9605 31.6828 -1.29706
34.6404 31.405 -1.60485
34.8294 31.5837 -1.44683
31.7978 30.2451 -1.31337
35.2409 32.1288 -1.20544
34.6902 31.3981 -1.49734
34.7903 31.4798 -1.43732
34.5553 31.2875 -1.68485
34.7265 31.4013 -1.53743
34.83 31.4933 -1.45651
34.5305 31.2112 -1.69421
34.6016 31.3483 -1.65408
35.2571 32.2052 -1.33168
34.7393 31.4312 -1.6053
34.8793 31.5479 -1.45608
34.5816 31.2794 -1.707
34.6873 31.3583 -1.60355
34.5468 31.2214 -1.73975
34.6951 31.3841 -1.64437
34.8794 31.5509 -1.51088
34.5948 31.2792 -1.74271
34.791 31.4782 -1.60799
34.9841 31.6558 -1.4586
35.059 31.7707 -1.41303
34.1423 30.9453 -1.34873
34.698 31.3803 -1.69185
34.8418 31.5059 -1.54807
34.7623 31.9252 -1.91219
35.2423 31.9693 -1.31387
34.5576 31.2259 -1.79469
34.6026 31.2909 -1.80289
34.6543 31.3264 -1.72744
35.2536 31.9772 -1.34344
34.6254 31.3523 -1.80634
34.8096 31.4778 -1.64486
34.6482 31.3428 -1.83766
34.7618 31.5552 -1.77585
35.0385 31.7475 -1.54072
35.1756 31.8902 -1.45482
34.9125 31.7092 -1.68393
34.9926 31.7073 -1.59278
32.6099 29.6216 -1.80099
34.8849 31.5143 -1.63988
35.082 31.7993 -1.5449
34.6327 31.2869 -1.85282
34.7073 31.4073 -1.80568
34.7888 31.434 -1.74678
33.6888 31.8343 -0.636341
34.929 31.5771 -1.63985
35.1875 31.9 -1.49658
34.7 31.4218 -1.84131
34.9685 31.6342 -1.61302
34.6848 31.3385 -1.84855
34.9512 31.8177 -1.76464
35.1427 31.8536 -1.54396
34.7166 31.4099 -1.84119
34.9037 31.5325 -1.69286
35.2485 31.9622 -1.49198
34.6518 31.2842 -1.89344
34.9072 31.5139 -1.68992
35.0937 31.8439 -1.63472
34.862 31.718 -1.87257
34.857 31.4883 -1.79374
34.9142 31.5203 -1.72475
35.2041 31.9676 -1.62201
35.2941 32.0915 -1.57978
34.7606 31.3883 -1.88132
34.9256 31.5355 -1.74851
34.7142 31.3375 -1.94221
34.7848 31.3973 -1.89462
34.6774 31.2885 -1.94677
34.892 31.494 -1.84334
34.8919 31.5933 -1.88732
34.736 31.3488 -1.95152
34.7935 31.3925 -1.94581
34.8679 31.5198 -1.92194
33.7316 30.5807 -1.39462
34.3993 31.2708 -1.60885
32.9226 29.9243 -1.50175
33.069 31.7004 -1.43916
31.9211 29.5259 -1.82162
33.1412 30.3026 -0.99403
33.8944 31.9137 -1.30331
33.3529 30.2806 -1.44247
32.951 31.0905 -0.715401
32.3922 29.5146 -1.64964
32.3884 30.5901 -1.14441
33.7359 30.6612 -1.14654
33.0872 30.2073 -1.06389
32.2425 30.0845 -1.20889
33.7785 31.7976 -1.58089
33.1272 31.1337 -0.682388
32.5666 30.1731 -1.11839
32.8015 30.0482 -1.13815
33.9491 31.3303 -0.644882
32.5455 30.9117 -0.954842
33.9597 30.7958 -1.59516
34.0521 30.8752 -1.39144
34.3049 31.1236 -1.15128
31.5393 30.694 -1.38209
33.4948 30.5197 -1.88049
33.5527 30.4549 -1.65026
32.0948 29.982 -1.26018
34.3553 32.3004 -1.33171
32.3981 29.9466 -1.19561
33.2392 31.2397 -1.44305
33.801 32.0527 -0.630081
34.0283 31.8394 -1.22611
34.299 31.6041 -0.902939
31.5989 30.4692 -1.36354
31.7626 31.0424 -1.32523
34.2663 31.6316 -1.05674
33.4808 30.8436 -0.704773
31.4513 30.5364 -1.4047
33.8902 30.8536 -1.05782
31.587 29.9499 -1.42366
32.7827 31.3224 -1.60306
33.1309 31.6325 -1.42736
33.3121 31.164 -1.41853
33.6044 32.2714 -1.44326
35.0825 31.8019 -1.58762
33.9341 30.8491 -1.09979
31.6292 30.0324 -1.37332
33.5791 31.8911 -1.58194
33.8444 30.9303 -0.894344
32.9443 29.864 -1.74411
31.8897 30.3931 -1.28012
33.9867 31.743 -1.40484
32.7395 29.6909 -1.94735
32.4575 29.745 -1.22654
32.4883 29.882 -1.18419
33.7036 30.8585 -0.892036
33.283 30.2155 -1.49598
32.4441 29.6519 -1.25499
32.3381 30.3905 -1.16394
34.1861 31.8401 -0.578743
33.7599 31.213 -0.621086
33.8053 30.6913 -1.78138
33.091 30.2486 -1.04653
33.3388 30.6912 -0.735149
33.4436 30.7935 -0.692379
34.2452 31.4484 -0.92067
33.7602 30.6263 -1.61633
33.5375 32.2278 -1.50596
32.2843 29.6357 -1.27348
33.1775 31.9056 -0.665852
33.0727 30.0175 -1.58789
33.7491 30.7561 -1.04147
33.3028 31.3935 -0.646721
34.542 31.3647 -1.05375
33.227 30.2338 -1.03789
31.7007 30.4391 -1.33186
32.5901 29.8372 -1.19271
32.1916 29.4282 -1.75369
32.9079 31.3131 -0.711197
31.3458 30.3492 -1.56097
33.6201 31.5816 -0.622272
32.7906 31.5596 -1.64939
34.0645 31.7776 -1.21721
32.1641 30.1231 -1.21923
32.3076 29.4737 -1.67934
33.327 31.7816 -0.661037
32.8479 31.2979 -1.60421
31.9505 29.8522 -1.30439
33.7879 30.9406 -0.846828
32.903 29.8941 -1.34406
33.4931 31.1881 -1.25173
33.9749 30.8487 -1.16335
33.541 30.516 -1.11327
34.4277 31.946 -0.585495
33.6867 30.5382 -1.44514
32.5238 31.47 -1.65547
32.4934 31.5661 -1.54478
32.3112 31.3971 -1.07752
33.4961 31.1465 -1.30878
31.6394 30.6467 -1.33978
32.2511 29.7475 -1.26152
31.9907 30.1476 -1.2593
33.3552 30.3023 -1.6971
32.2013 29.4273 -1.53658
32.9842 29.9025 -1.79122
32.4402 29.5308 -1.53913
32.1507 30.6465 -1.19812
33.2533 30.6523 -0.736649
33.7879 31.0836 -0.966709
32.747 29.7256 -1.79565
31.3408 30.4795 -1.45184
32.9407 31.4942 -0.705193
33.6634 32.2077 -1.4552
34.002 31.1995 -0.794357
33.387 30.883 -0.672009
34.339 31.0996 -1.54638
32.888 29.8624 -1.68539
32.5598 30.3568 -1.11251
33.3763 31.1512 -1.45174
32.3264 29.6701 -1.28748
32.8556 31.7075 -0.742409
34.3545 31.1401 -1.28693
33.8589 30.6648 -1.40076
32.648 31.6455 -1.64094
32.8133 29.888 -1.43642
32.9433 29.8779 -1.78919
33.1507 30.0929 -1.55349
34.1272 31.7422 -1.26393
33.0833 31.237 -1.5591
32.2967 30.9553 -1.1806
32.9648 30.1179 -1.71299
31.4459 30.0474 -1.55145
32.7974 30.1581 -1.10045
34.7778 31.4129 -1.60807
32.5677 31.6596 -1.33134
33.2339 31.5432 -1.32801
32.8064 31.3058 -0.736809
33.7775 32.1508 -1.29179
33.1699 30.3672 -0.944073
31.52 30.1768 -1.40256
34.8633 31.5354 -1.634
34.6727 31.4305 -1.55173
31.5455 29.8985 -1.85915
33.3432 31.044 -0.643166
33.2317 30.7368 -0.704151
32.3088 29.471 -1.60762
33.6662 30.5794 -1.69142
33.3142 31.4983 -1.29291
32.9462 29.8592 -1.89304
34.0929 30.89 -1.49063
33.5392 30.584 -1.08051
33.8794 30.7127 -1.53576
31.6499 30.0252 -1.3702
34.0445 31.8949 -0.980659
33.4034 31.2549 -1.28832
31.6483 30.5052 -1.34396
33.1665 30.1571 -1.69817
33.1319 31.3907 -0.669067
32.763 31.5518 -0.756424
33.2054 30.1497 -1.74341
32.0538 30.0047 -1.26578
32.9436 31.7133 -1.49947
33.0405 30.9464 -0.701729
34.3638 31.5192 -0.733089
33.8532 30.6862 -1.45172
33.0347 31.4884 -0.701523
34.6554 31.3773 -1.44419
34.3599 31.1295 -1.69008
32.5816 30.3323 -1.11662
31.323 30.3898 -1.61913
34.0536 31.2419 -0.781704
33.6428 31.1023 -0.585384
33.4549 31.8464 -0.656094
32.8033 29.7738 -1.79
33.257 32.1501 -1.43769
31.8946 30.6535 -1.27497
33.9447 31.8546 -1.28981
33.5282 32.3273 -1.39894
32.8444 29.9366 -1.19982
34.3791 32.9857 -1.50362
33.7942 30.7945 -1.04769
33.4986 30.3893 -1.44056
31.8431 30.8954 -1.28769
33.8891 32.1221 -1.12937
33.5702 30.9144 -0.683273
33.2912 31.0385 -0.655777
32.8722 30.9323 -0.825504
32.9098 31.2536 -0.729698
31.5947 29.8403 -1.87539
32.9523 29.9524 -1.34681
34.8883 31.7818 -1.63375
32.1998 30.29 -1.20273
33.952 32.0059 -0.60656
33.4823 30.7029 -0.855072
32.5646 29.5682 -1.78351
31.4541 30.1413 -1.4119
31.8465 31.0936 -1.30309
31.9373 30.992 -1.24636
32.3352 31.3049 -1.06403
31.9467 31.0506 -1.29224
32.0206 31.1 -1.23629
32.1497 31.0266 -1.18162
32.4685 31.1501 -0.95134
32.5863 31.3672 -0.847336
32.6431 31.4252 -0.802364
32.7106 31.2947 -0.777733
32.6909 31.3776 -0.781284
32.7669 31.3528 -0.746365
32.5335 30.9309 -0.965054
31.316 30.4892 -1.4693
32.7952 31.2404 -0.750015
32.8454 31.2897 -0.732975
32.7921 31.3946 -0.752045
32.7989 31.527 -0.745667
32.7994 31.6387 -0.754902
32.84 31.0073 -0.792519
32.9073 31.041 -0.736382
32.8897 31.2583 -0.719971
32.8951 31.3521 -0.71349
32.8043 30.9594 -0.818256
32.8878 31.69 -0.700336
32.9223 31.1354 -0.725578
32.8463 31.6035 -0.741814
32.8327 30.9476 -0.820026
32.9476 31.2897 -0.701126
32.882 31.6884 -0.742455
32.9375 31.7432 -0.699017
33.4236 30.4319 -1.04716
33.0517 30.9865 -0.69891
33.0063 31.0989 -0.712196
33.0404 31.144 -0.698257
33.0359 31.2533 -0.691471
33.0494 31.3476 -0.69088
33.0839 30.8813 -0.701099
33.1026 31.1424 -0.681107
32.9954 31.8309 -0.709957
33.1359 30.8419 -0.691563
33.1371 30.9401 -0.687428
33.1281 31.0265 -0.688469
33.1485 31.1067 -0.678036
33.1548 31.0064 -0.684608
33.16 31.0792 -0.669716
33.1949 31.2499 -0.65958
33.1976 31.0692 -0.667885
33.1937 31.4438 -0.662132
33.1976 31.0455 -0.665726
33.2314 31.1338 -0.654572
33.1659 31.9125 -0.661644
33.2493 30.7967 -0.68819
33.2482 30.8927 -0.674137
33.2442 31.2333 -0.641884
33.2452 30.9477 -0.674671
33.2507 31.1007 -0.652931
33.1954 31.6897 -0.676743
33.2939 31.0863 -0.651051
33.2874 31.1869 -0.646709
33.3064 30.8362 -0.663822
33.2797 30.7869 -0.69384
33.3056 31.1435 -0.629688
33.3099 31.2653 -0.644466
33.2085 30.6771 -0.745747
33.2997 30.6968 -0.704323
33.2974 30.9305 -0.670628
33.3372 31.0886 -0.635223
33.2769 30.6352 -0.704544
33.3483 30.9035 -0.653797
33.1569 30.4893 -0.812767
33.2978 31.81 -0.668941
33.2911 30.637 -0.748234
33.3943 31.0474 -0.643372
33.3881 31.1053 -0.642216
33.1884 30.4737 -0.807625
33.3249 30.6922 -0.712646
33.6441 30.5307 -1.2974
33.3968 30.8474 -0.651978
33.4398 30.9252 -0.651802
33.4394 30.9971 -0.619606
33.4303 31.3836 -0.628395
33.4728 30.9713 -0.604908
33.45 31.0934 -0.631977
33.4522 31.3538 -0.621826
33.4315 31.6915 -0.640575
33.4624 31.3394 -0.618923
33.4443 31.5504 -0.639179
33.4373 30.8479 -0.666248
33.4803 31.0671 -0.624821
33.4931 31.1467 -0.624546
33.5013 31.4346 -0.629494
33.4801 31.5302 -0.626934
33.4048 31.9483 -0.676529
31.9635 30.5546 -1.25293
33.5033 31.4076 -0.620552
33.4425 31.9273 -0.670528
33.4864 30.9798 -0.65134
33.4577 32.0444 -0.678802
33.4782 30.8886 -0.65583
33.5318 31.0238 -0.618439
33.5948 31.0455 -0.569084
33.547 31.3832 -0.626629
33.534 31.4839 -0.619576
33.532 31.0348 -0.638809
33.3814 30.7343 -0.74197
33.5894 31.5384 -0.612183
33.5484 31.8476 -0.65062
33.5022 30.8927 -0.688488
33.5632 31.0906 -0.623718
33.5985 31.4381 -0.612915
33.5089 32.1328 -0.686172
32.3954 31.5083 -1.57838
33.4287 30.7897 -0.734566
32.371 29.4906 -1.76524
32.3802 31.4063 -1.60285
33.4592 30.8616 -0.722073
32.2961 31.3588 -1.70542
33.5981 30.9864 -0.650742
33.6598 31.1773 -0.578819
33.6457 31.598 -0.614044
33.6097 31.7544 -0.635399
32.3879 31.4153 -1.64345
33.5827 32.0344 -0.66116
33.6311 31.7365 -0.632683
32.3036 31.3622 -1.72848
33.6024 32.1749 -0.686153
33.5327 30.8858 -0.705849
32.5857 31.6233 -1.50938
33.5816 30.9374 -0.684418
33.6814 31.6801 -0.627678
33.6938 31.7969 -0.630333
33.6385 32.1287 -0.674137
32.5951 31.628 -1.53763
33.7001 31.9079 -0.634892
32.5859 31.6179 -1.5343
33.7056 32.3152 -0.641487
33.6953 31.0871 -0.636284
33.7471 31.3948 -0.600616
33.7022 32.1873 -0.65789
33.7421 31.3017 -0.587894
33.7362 31.6279 -0.616539
33.735 31.7504 -0.626785
33.6369 30.9828 -0.692921
33.7515 31.7247 -0.614708
33.7461 32.1392 -0.646446
33.7694 32.3861 -0.633068
32.7816 31.7241 -1.45051
33.1939 30.6089 -1.06228
33.7526 31.9904 -0.646942
33.6911 31.0479 -0.645187
33.7934 31.3525 -0.583275
33.7592 32.4326 -0.672611
33.8058 31.4572 -0.608803
33.7924 31.9405 -0.635323
32.7063 31.6828 -1.53004
33.1127 31.5119 -0.662354
33.7984 31.2934 -0.598804
33.8086 31.7941 -0.612995
32.6763 31.7159 -1.57166
32.7861 31.7401 -1.49677
33.8457 31.3429 -0.591957
33.2063 30.6119 -1.09817
32.7854 31.7598 -1.53728
33.7497 31.0744 -0.68187
32.4486 31.4428 -1.83125
32.6646 31.3875 -1.61845
32.6425 31.6507 -1.67256
33.8806 31.4976 -0.605705
32.6928 31.3695 -1.60668
32.6924 31.4863 -1.61642
33.6973 30.9542 -0.744236
33.2427 30.5936 -1.08574
33.9286 32.1871 -0.622532
33.7605 31.053 -0.687382
32.537 31.387 -1.7864
32.729 31.4756 -1.64328
32.7521 31.2303 -1.60651
33.6566 30.9368 -0.803574
33.6418 30.8662 -0.806484
33.9892 31.6023 -0.592518
34.0029 32.2598 -0.63855
33.7277 30.9561 -0.760529
32.6785 31.7864 -1.76326
34.0318 32.0484 -0.605209
33.78 31.0804 -0.74321
32.8416 31.1784 -1.57859
33.9463 31.2566 -0.642174
34.0538 32.3513 -0.638409
33.779 31.0044 -0.761452
32.8912 31.1497 -1.56427
34.097 32.2824 -0.62616
34.0695 32.5316 -0.671703
33.3855 30.4384 -1.05559
32.9008 31.1527 -1.5925
34.0588 31.5114 -0.573418
32.8416 31.5426 -1.6841
32.9078 31.2599 -1.60385
34.0898 31.5787 -0.566563
32.8904 31.3855 -1.63524
33.7381 30.9009 -0.845932
33.8001 30.9882 -0.795803
32.9321 31.242 -1.59383
32.8761 31.5216 -1.68048
34.1459 32.3979 -0.644547
33.2191 32.1927 -1.46017
33.9598 31.2647 -0.677269
32.9074 31.0501 -1.60539
32.9307 31.144 -1.6156
33.8451 31.052 -0.785065
32.9928 31.1989 -1.59023
33.0229 31.2888 -1.55956
32.9246 31.4928 -1.67743
33.1576 32.1567 -1.55947
34.0924 31.4027 -0.640354
32.9796 31.4505 -1.64651
33.7553 30.8076 -0.836754
34.0468 31.7382 -1.25238
33.4502 30.4896 -1.08795
33.5256 30.5279 -1.01576
33.7255 30.839 -0.905399
33.9054 31.0916 -0.781456
33.2599 32.1827 -1.50241
33.045 31.1834 -1.59843
33.8182 30.9982 -0.833084
34.0548 31.369 -0.670914
34.128 31.4565 -0.613876
33.1639 31.1994 -1.44829
34.2317 31.7843 -0.57785
33.7484 30.88 -0.883591
33.4851 30.4827 -1.10524
34.2481 31.6125 -0.541695
33.8099 31.0247 -0.86142
34.2667 32.6235 -0.682293
33.5731 30.5804 -1.01941
33.7899 30.8974 -0.901432
33.4338 32.2911 -1.44656
33.5459 30.5933 -1.05323
33.8822 31.0475 -0.836327
33.8196 30.9371 -0.868408
34.3157 32.3068 -0.626801
32.5768 29.5713 -1.80138
33.9904 31.1931 -0.763672
33.4199 32.3157 -1.4786
34.1197 31.4084 -0.671722
33.7494 30.8344 -0.948002
33.495 30.4403 -1.15526
33.5565 32.2835 -1.39295
33.6346 30.6515 -1.0558
33.0534 31.1933 -1.67772
33.1117 31.2596 -1.62627
33.322 31.1734 -1.4126
33.6017 30.5894 -1.09375
34.349 31.9092 -0.584862
33.5013 30.4743 -1.13328
33.5919 32.2552 -1.40066
34.1986 31.4408 -0.689011
33.6753 30.6759 -1.00986
33.7865 31.0908 -0.981533
33.9537 31.0779 -0.831551
33.6985 32.2431 -1.31606
33.6982 30.6984 -1.05081
33.7979 30.8557 -0.956139
33.8628 31.0098 -0.916119
34.3966 32.187 -0.624828
34.4198 32.3274 -0.629608
33.9997 31.1173 -0.806225
33.6521 30.6472 -1.08244
33.6929 30.737 -1.04158
34.4439 32.2856 -0.625496
34.0329 31.1813 -0.808624
34.0917 31.1951 -0.757053
33.5676 30.5307 -1.12562
34.4164 31.9645 -0.588108
34.3114 31.6115 -0.629745
33.8448 30.9054 -0.942825
34.1146 30.9667 -1.08266
34.0837 31.2284 -0.804874
33.8495 30.8811 -0.992668
33.7921 31.0275 -1.05471
34.4785 31.8403 -0.551804
34.4786 32.2281 -0.621784
33.353 30.3245 -0.956573
34.0526 31.1879 -0.845001
34.0913 31.8612 -0.951889
33.7782 31.0514 -1.0922
34.0016 31.1501 -0.876232
34.2988 31.5465 -0.675129
33.2659 31.7745 -1.7446
33.9599 31.0172 -0.899208
34.0993 31.2312 -0.834812
34.3194 31.5119 -0.659969
33.2998 31.7479 -1.73798
33.8118 30.8392 -1.03703
33.5002 31.9001 -1.58186
33.8953 32.0021 -1.2109
34.5442 31.9428 -0.598564
34.1147 31.2135 -0.827049
33.3211 31.6042 -1.71492
34.3787 31.5545 -0.655636
33.2151 31.8746 -1.89877
34.0695 31.1903 -0.885334
34.0213 31.9214 -1.11302
33.5718 32.1283 -1.62554
33.6597 30.5725 -1.18542
34.2483 31.3445 -0.791645
34.2094 31.6947 -0.896091
33.8002 30.7464 -1.08884
31.5842 30.615 -1.37104
33.89 30.9402 -1.01215
33.5693 31.5709 -1.50368
34.1687 31.261 -0.828716
34.4127 31.6556 -0.681648
33.8953 30.8824 -1.04112
33.9242 30.9139 -0.996681
32.9022 29.989 -1.53202
33.5882 31.5527 -1.49429
33.6055 31.6581 -1.50317
34.0424 31.8908 -1.11295
33.8781 30.7038 -1.49755
33.6349 31.6371 -1.50668
33.5952 31.847 -1.58152
33.5638 30.4769 -1.28294
33.6867 30.5988 -1.15315
34.0902 31.825 -1.07528
33.9553 30.9712 -1.00019
33.6171 31.9398 -1.59472
34.6604 32.3046 -0.628975
33.7083 30.6238 -1.1853
34.2314 31.6808 -0.909081
33.9768 30.9576 -1.00506
33.6855 30.5892 -1.19778
33.751 30.6706 -1.15474
33.834 30.753 -1.10733
34.475 31.7043 -0.681629
33.9619 30.9812 -1.02192
33.5434 30.4305 -1.34272
34.2549 31.3844 -0.835789
34.1481 31.7852 -1.05649
33.83 31.9169 -1.42234
34.2765 31.6263 -0.900375
34.1516 32.4848 -1.2648
34.1296 32.7586 -1.34351
33.688 31.5926 -1.49949
34.6945 32.2418 -0.62524
33.8562 31.8983 -1.40429
34.5222 31.8034 -0.710377
33.7635 31.9139 -1.53826
33.8987 31.8409 -1.39696
34.1744 31.7411 -1.07823
34.7331 32.1714 -0.621468
34.1231 31.7115 -1.13726
33.7293 30.6093 -1.24496
34.1998 31.7029 -1.06088
34.3038 31.6169 -0.9272
32.3401 30.2917 -1.16626
34.1149 31.7388 -1.16648
34.0584 30.9991 -1.04049
34.21 31.7045 -1.07829
33.7804 30.675 -1.24045
33.9642 31.7595 -1.36144
34.1326 31.7379 -1.19141
34.3004 31.6242 -0.939804
34.2139 32.6884 -1.38027
34.6458 31.8996 -0.692139
33.8088 31.8993 -1.58306
34.2313 31.6752 -1.06757
34.1578 31.1746 -1.0006
33.7882 30.6643 -1.24809
34.3334 31.638 -0.9986
33.8857 30.7574 -1.19771
34.2565 32.3633 -1.26932
34.304 32.993 -1.41514
32.2825 29.4518 -1.68866
34.244 31.6709 -1.07998
34.8028 32.0475 -0.616943
33.8403 30.7091 -1.24179
33.9368 30.8085 -1.14958
34.2789 32.3571 -1.29263
34.3032 31.3066 -0.950718
34.2766 31.6204 -1.05595
34.3363 32.9609 -1.42623
33.5774 30.4239 -1.44547
33.6118 30.4832 -1.42244
33.6631 30.5297 -1.3894
34.2964 31.5941 -1.05176
33.8114 30.6781 -1.29876
34.3434 32.9829 -1.45569
34.1009 30.9888 -1.08862
33.6284 30.4825 -1.44441
33.7328 30.5881 -1.34774
33.7592 30.628 -1.3455
34.3742 31.5781 -0.976978
33.5761 30.4409 -1.49265
33.8555 30.7108 -1.29776
34.3421 32.2475 -1.25464
34.8049 31.971 -0.690327
34.3139 31.308 -0.97744
34.3239 31.5708 -1.0548
33.8588 30.7228 -1.2995
34.3216 32.3295 -1.31903
33.9882 30.846 -1.19813
32.3091 31.3161 -1.04948
34.083 30.9377 -1.14011
34.1589 31.0331 -1.08297
34.2194 31.1356 -1.02802
34.3536 31.5136 -1.01693
34.4227 31.4946 -0.934586
33.9424 30.7977 -1.24435
33.6393 30.496 -1.49686
34.3971 32.9967 -1.53655
34.2761 31.5677 -1.1489
33.7915 30.6374 -1.39591
33.837 30.6914 -1.34702
34.3814 32.4871 -1.38844
33.8992 30.7387 -1.29238
34.0524 30.895 -1.1984
33.7482 30.5874 -1.43941
34.3727 32.2996 -1.35419
33.8453 30.6833 -1.39753
34.4446 32.3623 -1.34016
34.4513 31.393 -0.975758
34.4314 32.1611 -1.27818
34.1078 30.9429 -1.19387
34.067 30.9009 -1.24165
33.8051 30.6297 -1.45091
33.6954 30.5388 -1.54195
33.7516 30.5892 -1.49484
33.89 30.7312 -1.3985
34.161 30.9879 -1.18998
33.9886 30.8257 -1.34649
34.1135 30.9464 -1.22255
33.5507 30.4531 -1.69623
34.0795 30.9059 -1.26517
34.4487 32.8038 -1.61091
34.1331 30.9554 -1.25
34.2107 31.0356 -1.18995
33.8084 30.6344 -1.49654
33.5853 30.4517 -1.70458
33.5977 30.4982 -1.65489
34.7629 31.7666 -0.855259
33.8599 30.6905 -1.50043
34.5666 31.482 -0.97617
34.0036 30.8338 -1.39513
34.5306 32.903 -1.6174
33.7483 30.593 -1.59235
34.1461 30.9566 -1.29514
34.5599 32.8852 -1.63754
34.4836 31.3018 -1.06171
33.9111 30.7466 -1.49619
34.0128 30.8312 -1.44441
33.6345 30.4988 -1.72834
34.4491 31.2751 -1.12709
33.5346 30.5959 -1.92201
34.4007 31.2238 -1.1489
34.5869 31.4028 -1.05149
34.0951 30.8919 -1.37926
33.7341 30.621 -1.69004
33.7843 30.6544 -1.64262
34.4223 31.2187 -1.16339
34.1504 30.9456 -1.39303
33.6671 30.5964 -1.80536
34.0916 30.8965 -1.44672
33.9227 30.7569 -1.5993
34.1803 30.962 -1.39854
33.8548 30.7277 -1.68385
34.7297 31.559 -1.00852
34.0302 30.8438 -1.54199
33.8271 30.6641 -1.71161
33.9253 30.7675 -1.64988
33.912 30.7785 -1.67448
34.3128 31.0953 -1.32658
33.9781 30.8182 -1.63131
33.8795 30.7154 -1.70921
33.9841 30.8358 -1.65321
35.0111 31.9761 -0.944469
34.2426 31.0223 -1.44754
34.9702 31.9153 -0.978764
34.0375 30.8671 -1.6254
34.0932 30.9064 -1.5921
34.687 31.4652 -1.12749
34.0392 30.886 -1.64827
34.5642 31.324 -1.22096
33.9476 30.7678 -1.71358
34.8253 31.6087 -1.05167
32.2903 30.5431 -1.22936
34.0517 30.8794 -1.69565
34.0895 30.9128 -1.63757
34.1512 30.9474 -1.58589
34.2639 31.0435 -1.53502
33.9023 30.9427 -1.9333
34.1069 30.9296 -1.68817
34.1615 30.986 -1.64696
34.2126 31.0081 -1.58876
34.3684 31.1195 -1.45754
34.0567 30.8734 -1.7273
34.2113 31.0246 -1.63
34.1625 30.981 -1.67582
34.278 31.0675 -1.58474
34.3831 31.1186 -1.48289
34.449 31.2792 -1.50385
34.244 31.0392 -1.6901
34.4007 31.1443 -1.54562
34.6554 31.4616 -1.38297
35.1182 31.9205 -1.02839
32.0997 29.8064 -1.28611
34.4161 31.2367 -1.60188
34.4305 31.2336 -1.60388
34.5471 31.2812 -1.49609
34.7104 31.5337 -1.408
34.8203 31.5383 -1.25443
34.5961 31.323 -1.45379
34.3236 31.3323 -1.82553
34.9348 31.6624 -1.25182
34.7428 31.5105 -1.42448
34.5345 31.2336 -1.5942
34.6129 31.4028 -1.59977
34.697 31.4003 -1.53727
35.1767 31.9037 -1.2157
35.2232 31.9652 -1.18365
34.8036 31.4861 -1.49814
34.8651 31.7797 -1.59941
35.146 31.8814 -1.29786
35.2442 32.0079 -1.23971
31.9835 30.931 -1.23907
34.7271 31.4036 -1.59634
34.8652 31.5477 -1.48483
34.6808 31.3592 -1.63948
34.759 31.5516 -1.67918
35.0223 31.707 -1.41212
34.7485 31.4117 -1.64216
34.9119 31.7573 -1.63748
35.0768 31.7689 -1.39585
34.6455 31.3121 -1.6982
34.7971 31.4618 -1.60971
34.6155 31.2939 -1.82222
33.3938 30.633 -0.933918
34.7762 31.4248 -1.70551
34.9729 31.6056 -1.54382
34.8782 31.5333 -1.65709
32.6538 30.388 -1.11074
34.6987 31.3516 -1.80378
34.8233 31.5204 -1.73212
34.9451 31.6519 -1.69342
34.6029 31.2475 -1.88325
35.1488 31.8665 -1.58041
35.2021 31.9094 -1.53444
35.2233 31.9559 -1.60229
35.2779 31.9998 -1.55525
35.2302 32.0644 -1.70884
33.6965 30.5548 -1.72725
32.5717 29.9717 -1.17576
31.8873 30.5389 -1.257
32.8194 30.1485 -1.9995
34.5121 31.2742 -1.32864
32.7795 29.8036 -1.30722
32.2413 29.7931 -1.25793
32.9639 29.9448 -1.37302
31.7999 30.8005 -1.30097
31.4561 29.9952 -1.83413
32.7472 29.6902 -1.99178
33.9692 31.9247 -1.22684
32.7935 29.7894 -1.58859
32.8394 31.3405 -1.64463
33.3668 30.6239 -0.872837
32.4061 29.5272 -1.59907
32.0983 31.2463 -1.19995
32.0259 30.9346 -1.27558
32.6485 29.7603 -1.41547
33.0006 31.2069 -1.63649
33.2191 30.4992 -0.934395
33.3255 30.2875 -1.25655
33.0978 30.9941 -0.688725
32.3932 29.6027 -1.29792
33.0493 29.9912 -1.59026
32.1929 29.5914 -1.29448
33.1476 30.7595 -1.18163
33.1758 30.6165 -1.1389
31.9915 29.6062 -1.56966
31.7479 30.5564 -1.32372
34.5229 31.2658 -1.19942
32.659 29.8541 -1.18039
32.5799 29.6341 -1.39528
32.6121 29.6847 -1.69568
34.0856 31.8367 -1.13721
33.9414 31.4445 -0.634407
32.7283 29.8975 -1.16235
34.4617 31.2092 -1.64802
32.9078 29.8621 -1.59442
33.3448 31.4953 -1.28902
31.9423 30.9399 -1.27468
33.4076 31.2402 -1.2454
33.1658 30.1206 -1.50486
32.7959 29.9991 -1.14368
32.9087 31.5453 -1.65816
32.1509 30.4085 -1.20165
31.4678 30.7664 -1.39054
33.0566 31.2589 -1.58504
31.8058 29.6553 -1.49355
32.0584 30.5962 -1.22433
31.9592 29.6105 -1.36477
32.5241 30.0293 -1.1777
32.3823 30.2004 -1.18341
32.9466 30.137 -1.09577
32.7956 29.8049 -1.49376
32.8955 30.0916 -1.12565
32.646 31.4049 -0.787819
33.4256 30.8134 -0.669144
33.2364 30.1835 -1.64539
33.7278 31.6647 -1.51731
33.1341 30.2452 -1.04335
32.3807 31.5184 -1.29695
32.3495 29.4862 -1.60033
31.601 29.8411 -1.49191
32.0305 29.4733 -1.74611
32.4537 29.545 -1.79203
31.9015 30.1066 -1.29034
33.0523 30.0527 -1.29842
33.7912 32.1954 -1.24091
34.0867 31.7796 -1.24644
33.7377 31.6566 -1.52131
32.1901 29.838 -1.2623
33.1632 30.4288 -0.87672
31.9152 31.0719 -1.27977
32.0891 30.9391 -1.24533
33.3777 31.6298 -0.658054
31.6184 29.7631 -1.59575
32.8275 29.8578 -1.25621
32.3438 29.4994 -1.49709
33.1031 30.1449 -1.85702
32.5493 29.6135 -1.60085
31.9439 30.8894 -1.24824
32.9193 29.9059 -1.37386
33.0294 31.6779 -1.56291
32.909 29.9308 -1.28708
32.3527 30.6771 -1.16478
32.5692 31.5002 -0.843201
34.1437 31.7917 -1.17126
32.5436 30.2999 -1.15559
31.4741 30.4303 -1.42469
33.2528 31.5561 -1.28647
31.9871 29.6262 -1.58852
32.8724 29.8568 -1.41918
31.4616 30.6139 -1.40852
33.5141 30.42 -1.37494
31.4082 30.0097 -1.64978
33.6683 30.5697 -1.27476
33.9601 31.9873 -1.10645
32.0335 30.6392 -1.22999
33.782 30.8154 -0.968716
33.3937 31.3847 -1.22499
34.3116 31.6042 -1.07898
31.7383 30.6106 -1.31001
31.9911 30.4926 -1.24414
33.2417 30.2624 -1.15707
33.7495 30.6524 -1.19573
33.2261 30.1619 -1.45046
32.4675 29.6281 -1.76465
33.1551 30.4066 -0.889648
31.5028 30.5414 -1.39684
31.488 30.6282 -1.38869
31.5419 30.49 -1.38026
31.5976 30.5846 -1.36343
31.5943 30.3398 -1.3662
31.5926 30.6867 -1.35684
31.5385 30.8356 -1.37745
31.5986 30.7897 -1.35818
31.6959 30.3355 -1.33587
31.6445 30.5441 -1.35735
31.742 30.3069 -1.30989
33.8071 31.7595 -1.54769
31.6828 30.6424 -1.33579
31.7565 30.3985 -1.30994
31.7135 30.7319 -1.31659
31.6867 30.848 -1.32877
31.7884 30.2838 -1.30307
31.744 30.7006 -1.3076
31.749 30.8377 -1.31241
31.7937 30.3903 -1.29928
31.7951 30.4934 -1.29501
31.802 30.597 -1.29335
33.2358 30.4148 -0.842628
31.8124 30.3605 -1.29868
31.8065 30.4493 -1.2975
31.8462 30.4466 -1.28696
31.7932 30.904 -1.30504
31.8958 30.4377 -1.26648
31.8543 30.7449 -1.28517
31.7856 31.0408 -1.32158
31.8996 30.25 -1.28323
31.8831 30.5451 -1.28117
31.8748 30.7435 -1.27623
31.8152 31.0222 -1.31394
33.2977 31.5091 -1.20907
31.9485 30.2496 -1.24958
33.9163 31.968 -1.19875
31.9403 30.3963 -1.25926
31.948 30.4964 -1.25059
31.9418 30.7339 -1.24995
31.9674 30.698 -1.24471
31.9431 30.8038 -1.25811
31.9038 30.9467 -1.27612
31.9839 30.2958 -1.25313
31.9939 30.3979 -1.2556
31.9808 30.5788 -1.24223
32.0359 30.4413 -1.23217
32.0371 30.7875 -1.23324
31.9295 31.1875 -1.30158
32.1923 31.3062 -1.11237
32.0403 30.2393 -1.24673
32.0858 30.6312 -1.21636
32.3591 31.3715 -0.989471
32.4176 31.4272 -0.943844
32.0979 30.4417 -1.21372
32.0958 30.5394 -1.21481
31.9975 30.9377 -1.28667
32.0086 30.9131 -1.2976
31.5862 29.9981 -1.39523
32.5851 31.4869 -0.843834
32.1098 30.3494 -1.21588
32.1516 30.6022 -1.2033
32.2406 31.2791 -1.12413
32.2966 31.3408 -1.08045
32.1314 30.1314 -1.23061
32.1549 30.3092 -1.20788
32.1333 30.2439 -1.23362
32.6882 31.3471 -0.777542
32.1878 30.4887 -1.19237
32.7328 31.4417 -0.77388
32.1939 30.5915 -1.18676
32.9587 31.2073 -1.56929
32.164 30.2109 -1.22792
32.194 30.5492 -1.19011
32.189 30.7913 -1.23209
32.1605 30.7112 -1.25919
32.8385 31.2353 -0.73275
32.7973 31.3522 -0.746574
32.2534 30.3513 -1.18742
32.1925 30.6897 -1.24507
32.2904 30.5275 -1.1936
34.4625 31.3206 -1.04167
32.2413 30.6544 -1.21662
32.3155 30.695 -1.15783
32.2887 30.3318 -1.18749
32.3563 30.5654 -1.13214
32.3122 30.7047 -1.1795
32.294 30.1483 -1.19329
32.2198 30.6809 -1.26078
32.3287 30.2952 -1.17789
32.9147 31.3673 -0.723717
32.2448 30.5634 -1.24849
32.2751 30.6403 -1.2268
32.94 31.4688 -0.720524
32.3337 30.5933 -1.18369
32.3181 30.5181 -1.22195
32.9686 31.5795 -0.727718
32.4037 30.5576 -1.14592
32.391 30.3412 -1.15438
33.0069 31.669 -0.713665
32.3934 30.0407 -1.19215
32.3896 30.0959 -1.19633
32.4513 30.2469 -1.15176
32.442 30.1833 -1.16109
33.0788 31.5807 -0.690372
32.4146 31.468 -1.24982
33.046 31.0416 -0.699898
33.0615 31.2173 -0.689163
32.4603 30.1628 -1.16664
32.4905 30.2384 -1.14203
33.1312 31.3834 -0.691582
32.4964 30.1508 -1.15502
33.1444 31.2382 -0.681946
33.1815 31.5836 -0.671337
32.4938 30.1931 -1.15025
32.496 30.3337 -1.18639
33.2449 31.9641 -0.660641
33.6303 30.9569 -0.679424
32.4953 30.061 -1.17504
33.2056 31.8873 -0.702549
33.2097 31.4144 -0.670891
32.5484 29.9923 -1.16258
33.1552 30.7943 -0.698929
32.5571 30.1048 -1.15007
33.2053 30.9527 -0.680988
33.2301 31.1461 -0.673004
33.258 31.3557 -0.663422
32.3596 31.5009 -1.48853
32.5581 29.9552 -1.1635
32.5734 30.2837 -1.17329
32.6363 30.1468 -1.13724
32.6386 30.2406 -1.14133
33.2801 31.213 -0.671852
33.3512 31.5006 -0.640587
33.3347 31.6944 -0.669449
32.3557 31.5185 -1.52092
33.2319 30.8275 -0.689976
32.3734 31.5009 -1.51104
32.4454 31.5763 -1.49272
33.274 30.9887 -0.670853
32.3831 31.5118 -1.54515
32.6762 30.1358 -1.12528
32.6378 29.9325 -1.15582
32.6942 30.1903 -1.12946
32.6983 30.0511 -1.13957
33.4439 32.0744 -0.68737
32.6871 30.0886 -1.13906
33.4852 31.7984 -0.650375
33.4879 31.9955 -0.673973
33.2496 30.6529 -0.710678
32.6936 29.8985 -1.15709
32.6848 29.9861 -1.14373
33.2092 30.6112 -0.756279
33.1552 30.4977 -0.827789
33.3582 30.7932 -0.673027
33.4275 31.0361 -0.642651
33.5412 31.5369 -0.623917
32.755 30.0042 -1.14394
32.7994 30.1547 -1.12235
33.5197 31.4352 -0.641323
33.3182 30.6775 -0.722721
31.6836 29.6816 -1.59158
32.7522 29.9458 -1.15456
33.4053 30.8617 -0.671101
32.8079 30.0689 -1.11719
32.8373 30.1356 -1.10781
33.0879 30.3361 -0.942963
33.0382 30.294 -0.964928
32.7488 29.8813 -1.18659
33.6382 31.5563 -0.622036
33.7039 32.2534 -0.671356
32.9217 30.2431 -1.09291
33.5774 31.0824 -0.616047
33.6132 31.3044 -0.627747
33.1801 30.4233 -0.892105
32.8396 29.9923 -1.15293
33.4082 30.7848 -0.733849
33.682 31.4871 -0.614017
33.2092 30.4807 -0.875404
33.2845 30.5739 -0.82122
33.7293 31.9671 -0.643356
33.3537 30.6874 -0.795502
33.6638 31.3588 -0.608124
33.3007 30.5627 -0.824913
33.3864 30.6358 -0.753769
33.4272 30.6791 -0.729012
33.4807 30.8087 -0.702637
33.0825 30.2781 -0.994228
33.4 30.7392 -0.789276
33.4744 30.8296 -0.724854
33.0503 30.2286 -1.03561
33.1307 30.3257 -0.98439
33.7347 31.5848 -0.628441
33.394 30.6562 -0.802521
32.9975 31.7467 -1.40502
33.7509 31.56 -0.627411
32.7984 29.8636 -1.23999
33.6797 31.0779 -0.611034
33.272 30.5327 -0.901447
33.7856 31.6805 -0.632019
33.3719 30.5902 -0.816658
33.8482 31.9458 -0.625893
33.0714 31.7899 -1.35787
33.0386 30.1744 -1.09907
33.2634 30.5495 -0.923294
33.6114 30.9773 -0.678558
33.3053 30.5039 -0.89526
33.7939 31.493 -0.623688
33.4108 30.6663 -0.847038
32.853 29.9258 -1.23222
32.935 30.0275 -1.18267
32.8466 29.9067 -1.24519
32.956 31.7281 -1.5409
33.1328 31.7227 -1.35011
33.4578 30.709 -0.827278
33.2029 30.2751 -0.977192
33.3947 30.61 -0.891132
33.1987 30.2422 -0.991398
33.1395 30.7567 -1.16222
33.4437 30.6413 -0.854095
32.998 31.702 -1.55165
33.0828 31.6805 -1.43676
33.1777 31.6711 -1.34148
33.6997 31.0118 -0.702435
33.2417 30.2979 -0.959599
32.8192 31.3514 -1.63445
32.898 29.9425 -1.24658
32.8424 29.8533 -1.29112
32.9859 31.7244 -1.5787
33.0344 30.108 -1.16236
33.0964 30.2043 -1.09562
33.1862 30.2295 -1.04729
33.0847 30.1544 -1.15409
32.8689 31.3055 -1.62182
33.3411 31.5757 -1.24453
33.1031 30.2428 -1.12525
33.9037 31.3327 -0.623749
33.2386 31.4701 -1.34152
33.8008 31.1124 -0.677246
32.8539 29.8516 -1.33399
32.9303 29.9539 -1.2957
33.2615 31.4369 -1.32529
33.155 30.2489 -1.13099
33.3768 31.5575 -1.2706
33.7766 31.0595 -0.724274
33.2852 30.2527 -1.03629
33.3425 30.281 -0.99374
32.9845 31.351 -1.64497
33.494 31.2896 -1.09337
33.358 30.3357 -0.993828
33.2267 31.3925 -1.41042
32.9883 30.0016 -1.29447
33.5038 31.2481 -1.08851
33.2357 31.3993 -1.43465
33.3243 31.3713 -1.31912
33.2367 30.2912 -1.11069
33.0871 30.0978 -1.24473
33.2128 31.2972 -1.4311
33.5583 31.2107 -1.0652
33.5042 31.2029 -1.14964
33.4439 32.3753 -1.53826
33.3409 30.375 -1.06078
33.0542 31.0039 -1.55079
33.0933 31.2342 -1.57289
33.5866 31.162 -1.04048
33.0708 30.9865 -1.54158
32.9247 29.906 -1.39114
33.4864 32.2884 -1.5027
33.3797 31.1845 -1.30978
33.2371 30.2463 -1.19603
33.5057 32.2558 -1.49371
33.753 32.2471 -1.23812
33.4016 30.5094 -1.07266
33.2917 31.1999 -1.42301
33.3925 31.1915 -1.34809
33.4477 31.2108 -1.26061
33.4188 30.497 -1.05349
32.8879 29.9511 -1.45959
33.1079 30.1029 -1.28989
33.6823 32.2613 -1.34319
33.5578 31.1421 -1.14162
33.2046 30.188 -1.24194
33.2937 30.2843 -1.19663
33.46 32.2298 -1.6079
33.3463 31.1484 -1.40019
33.593 31.0984 -1.13122
33.4966 32.1903 -1.61255
33.1633 30.145 -1.28522
33.2534 30.2444 -1.23968
33.7399 32.1859 -1.34634
33.4898 30.5916 -1.0611
33.5087 31.1454 -1.25306
33.3871 30.3754 -1.15048
33.4956 30.5345 -1.09477
33.2527 31.205 -1.56181
33.3467 31.1591 -1.44414
33.4159 31.192 -1.37672
33.0699 30.0663 -1.37756
33.1893 30.154 -1.30106
33.5955 32.2037 -1.55657
33.9362 32.035 -1.11611
33.4305 31.1738 -1.36995
33.5511 31.1385 -1.23374
33.6324 31.0436 -1.09716
32.0948 29.5504 -1.48027
33.3577 30.3293 -1.19516
33.5557 31.0921 -1.24329
33.6779 30.9377 -1.04515
33.8638 32.0757 -1.22708
33.0616 30.0822 -1.42796
33.7724 30.8685 -0.915142
33.3126 30.2908 -1.24142
32.9119 29.8533 -1.54132
32.9442 29.9142 -1.50974
33.0364 30.0171 -1.44466
33.0836 30.0764 -1.44551
33.1863 30.1535 -1.3487
33.5636 32.1142 -1.61711
32.9447 29.9026 -1.54752
32.9982 29.9644 -1.49153
33.5852 31.0607 -1.24024
33.6388 32.1762 -1.58432
33.7439 32.0949 -1.44737
33.0032 29.9804 -1.51534
33.0441 29.9995 -1.49337
33.6599 32.1575 -1.59233
33.9966 31.95 -1.12085
33.2435 30.1863 -1.3489
33.3457 30.2903 -1.29472
34.0173 31.9105 -1.11395
32.8968 29.8708 -1.6186
32.936 30.0228 -1.63321
33.0953 30.0715 -1.47166
33.1966 30.152 -1.39393
33.6701 32.179 -1.62793
34.1059 31.8838 -1.04643
33.7896 30.8163 -1.00461
33.6523 31.9989 -1.60697
33.4436 30.3827 -1.24521
33.9669 31.8993 -1.20193
34.038 31.8986 -1.1296
32.9017 29.8707 -1.63809
33.6394 30.5928 -1.1091
33.0937 30.0527 -1.49555
33.399 30.3395 -1.28856
33.8316 31.9382 -1.40587
33.9879 31.8826 -1.21347
32.8899 29.862 -1.64898
33.1991 30.1494 -1.4413
33.2626 30.2008 -1.38471
33.6951 31.9409 -1.59964
33.7275 32.0806 -1.6001
34.0802 31.1521 -0.82
34.1402 31.835 -1.05045
33.0737 30.0127 -1.53521
33.3013 30.2491 -1.39624
32.9778 29.9116 -1.64079
33.4507 30.3815 -1.28962
34.0081 31.8691 -1.22692
33.7514 32.0813 -1.63182
33.8721 31.8927 -1.41306
33.087 30.0444 -1.594
33.1277 30.0673 -1.5453
34.1049 31.8174 -1.145
33.6342 30.5606 -1.14492
33.8062 31.9202 -1.53529
34.0906 31.2349 -0.910187
33.2326 30.16 -1.4859
33.3342 30.2598 -1.39828
33.3627 30.3025 -1.3839
34.0488 31.8048 -1.22144
32.9808 29.9092 -1.69799
33.2979 30.2318 -1.44316
32.8547 30.1172 -1.92947
33.0793 30.0393 -1.64346
33.2428 30.1852 -1.50105
33.2686 30.2227 -1.48632
34.1399 31.7865 -1.16245
32.986 29.92 -1.71101
33.2492 30.1839 -1.53902
33.9989 31.0545 -1.02323
33.9634 31.7559 -1.39579
33.0863 30.0533 -1.67967
33.1503 30.0923 -1.63555
33.9709 30.9714 -1.03357
33.0517 30.034 -1.6993
33.2408 30.1815 -1.59674
33.0675 30.036 -1.73564
33.1197 30.1003 -1.70393
33.4872 30.3941 -1.39624
32.9551 29.8614 -1.80715
33.4483 30.3406 -1.44315
33 29.9229 -1.79912
34.2774 31.5493 -0.996788
33.1813 30.1551 -1.70846
33.2959 30.2257 -1.59886
34.2224 31.6882 -1.18235
34.3573 31.5798 -0.977837
32.9707 29.8562 -1.83924
33.3505 30.2827 -1.6002
33.7396 30.6121 -1.28891
32.9482 29.8553 -1.85044
33.4103 30.3251 -1.55992
34.186 31.656 -1.26167
33.5069 30.3926 -1.49645
33.2533 30.2059 -1.73036
34.2897 31.4034 -1.03316
32.9505 29.8927 -1.94922
34.0074 30.8905 -1.13359
33.4812 30.3577 -1.53824
33.521 30.4106 -1.50922
33.2008 30.1611 -1.78741
33.4435 30.3445 -1.60066
33.7178 30.5836 -1.3895
34.3031 31.2255 -1.03464
33.3827 30.3016 -1.74431
33.4855 30.3952 -1.64133
33.748 30.559 -1.3948
33.4969 30.4104 -1.69466
33.6037 30.4865 -1.59322
33.6571 30.5226 -1.55019
33.4967 30.3936 -1.74189
33.7646 30.6209 -1.54654
33.9206 30.712 -1.39742
33.7269 30.5653 -1.5782
33.8272 30.6437 -1.49732
33.5627 30.4788 -1.77841
33.9273 30.7403 -1.45379
34.1136 30.9247 -1.32744
33.38 31.6198 -1.23056
34.0328 30.8448 -1.40842
34.3194 31.1242 -1.23396
33.8974 30.7417 -1.59487
33.9564 30.7808 -1.55384
34.0076 30.8333 -1.54549
33.7997 30.6583 -1.69757
33.9072 30.7589 -1.63285
33.7411 30.6592 -1.80355
34.0603 30.8719 -1.50654
34.0643 30.8803 -1.52446
34.1741 30.9624 -1.46023
34.1788 30.9593 -1.48737
33.8282 30.881 -1.9347
34.0926 30.933 -1.66607
34.1481 30.9729 -1.61506
34.4698 31.2139 -1.3646
34.5739 31.2962 -1.28287
34.6336 31.3517 -1.26055
32.847 29.7803 -1.93996
34.6733 31.4109 -1.21642
34.2723 31.0625 -1.55602
34.4759 31.2147 -1.37292
34.3127 31.1214 -1.6796
34.689 31.4147 -1.36969
34.4433 31.2378 -1.65379
34.735 31.419 -1.42399
34.6377 31.4375 -1.61488
34.6493 31.4342 -1.62558
34.6098 31.3792 -1.68295
34.6258 31.3833 -1.70581
34.7988 31.4919 -1.54865
34.9187 31.5551 -1.58155
34.6215 31.2652 -1.90801
34.9809 31.6348 -1.70259
34.8755 31.4782 -1.76882
34.9952 31.6059 -1.69741
32.6274 29.6772 -1.65043
32.4506 29.8924 -1.19604
31.9355 29.692 -1.34975
31.7448 29.7092 -1.40164
33.4992 30.4294 -1.69326
33.2053 30.4553 -0.846226
31.9471 30.0492 -1.2923
32.1501 29.5503 -1.32698
31.6944 29.7893 -1.44057
32.1998 29.4256 -1.64468
32.0778 30.18 -1.23487
33.3826 31.5541 -1.1837
32.9979 31.334 -0.687923
32.5962 31.6858 -1.39851
32.5333 29.7833 -1.20553
31.9256 29.7769 -1.33973
32.3889 29.566 -1.34874
31.7044 30.3484 -1.31585
32.7553 29.7364 -1.89699
31.894 31.0382 -1.2638
32.798 29.8972 -1.2066
33.6908 30.9757 -1.1114
31.438 30.3031 -1.43316
32.8842 30.2094 -1.99307
33.4072 31.1651 -1.3743
32.5025 29.6338 -1.60672
31.6937 29.8498 -1.39198
31.893 30.7716 -1.25171
32.4565 29.5713 -1.44519
31.5885 29.7937 -1.6079
32.0471 30.0949 -1.26013
31.3008 30.484 -1.47473
32.9146 29.882 -1.54295
31.6331 29.7331 -1.65282
32.8381 29.7828 -1.80266
32.7464 31.4051 -0.748829
32.8181 29.7536 -1.78056
32.2529 29.5577 -1.29897
32.2325 30.5821 -1.17388
32.8424 29.8018 -1.69166
31.3869 30.0561 -1.80252
31.7956 29.5856 -1.59383
31.8642 29.588 -1.80574
31.41 30.0224 -1.61976
32.4936 29.6021 -1.401
32.989 31.5569 -0.698414
32.0314 29.681 -1.33011
31.5893 30.4358 -1.35769
33.1289 30.3613 -0.913879
33.5298 31.1764 -1.22109
31.4107 30.1049 -1.55658
33.8962 30.7155 -1.42224
31.3531 30.5977 -1.4462
31.4128 30.5647 -1.4117
31.4192 30.6822 -1.41143
31.3458 30.3913 -1.45486
31.4032 30.3488 -1.44387
31.4476 30.427 -1.41164
31.4906 30.5077 -1.38734
31.5534 30.6959 -1.36007
31.4933 30.1938 -1.4069
31.5925 30.6643 -1.34766
31.5728 30.9436 -1.37235
31.5066 30.1683 -1.39727
31.4965 30.2943 -1.40681
31.541 30.3548 -1.39215
31.461 30.1076 -1.44411
31.5362 30.1435 -1.39199
31.5459 30.2511 -1.38877
31.4891 30.078 -1.43526
31.6004 30.316 -1.35369
31.6014 30.409 -1.36224
31.6531 30.6157 -1.32943
31.684 30.7097 -1.31667
31.7102 30.9382 -1.30303
31.5352 30.0294 -1.41036
31.5818 30.2439 -1.3822
31.6437 30.2927 -1.34381
31.6485 30.3977 -1.34815
31.6988 30.6045 -1.32984
31.7007 30.8232 -1.31767
31.6943 30.9622 -1.33973
31.6005 30.0457 -1.37964
31.6032 30.1075 -1.36967
31.5943 30.2141 -1.37519
31.6919 30.3874 -1.33424
31.68 30.4887 -1.34104
31.6978 30.5805 -1.31751
31.638 30.187 -1.36564
31.7493 30.6572 -1.30192
31.7489 30.8927 -1.31261
31.6521 30.0752 -1.3518
31.738 30.4348 -1.30756
31.7916 31.0006 -1.30669
31.7309 30.3302 -1.31117
31.8028 30.6388 -1.30035
31.8263 30.9508 -1.28394
31.7028 30.0496 -1.34388
31.8259 30.8303 -1.28564
31.8626 30.9298 -1.26369
31.6008 29.8983 -1.40432
31.6901 29.9479 -1.36269
31.9003 30.8977 -1.2603
31.6485 29.891 -1.39618
31.8486 30.4571 -1.26825
31.8631 30.6801 -1.26901
31.6902 29.8873 -1.37374
31.7373 30.0374 -1.337
31.7546 30.1131 -1.33079
31.8011 30.194 -1.30579
31.9033 30.6489 -1.25938
31.993 31.2397 -1.25847
31.99 30.8466 -1.2384
31.74 29.8944 -1.36068
31.8549 30.1495 -1.29062
32.0342 30.89 -1.21056
31.7517 29.8353 -1.36018
31.7948 29.8938 -1.33749
