31.3891 19.0386 -0.695869
32.4212 18.3133 -1.27007
30.9048 18.7727 -1.56507
32.8584 20.628 -1.30993
30.6343 18.8463 -1.88793
29.9613 18.1877 -1.69926
30.4409 18.6486 -1.48812
31.953 19.927 -1.35334
32.1265 19.4336 -1.14961
32.6256 20.3 -1.1237
31.6587 19.4983 -1.04485
33.1932 19.8838 -1.11433
31.2908 18.571 -0.679745
32.9173 20.2364 -1.7157
32.2002 20.1323 -1.69864
32.7291 20.5336 -1.65237
32.816 18.707 -1.45492
32.5986 20.3465 -1.42567
30.0569 18.0321 -1.15014
31.6673 18.9421 -0.644558
32.3261 19.7804 -0.918377
31.9224 18.3833 -0.674473
33.3581 20.7726 -1.48306
30.1386 18.4402 -1.39082
31.9979 19.8013 -1.09316
32.433 19.9267 -1.97102
31.786 19.6568 -1.08738
32.0379 20.0001 -1.54902
32.0377 19.996 -0.991489
31.6446 19.1501 -0.645073
32.9178 20.2152 -1.74068
32.0193 19.9753 -1.25826
32.2749 19.4126 -1.07862
30.0442 17.8588 -1.77942
31.1411 18.5945 -0.674061
30.6117 18.6957 -1.98851
31.0951 19.2059 -1.79245
31.6771 18.5244 -0.661537
32.9634 20.6651 -1.78325
32.4913 20.1933 -1.09258
33.0572 20.3667 -1.76097
30.1946 18.5371 -1.5943
30.4064 17.4306 -1.10464
32.3132 20.2729 -1.45007
31.0776 19.1739 -1.1103
31.3812 19.002 -0.696831
32.1804 18.4903 -1.25993
31.8469 19.8291 -1.59655
31.6937 19.6894 -1.24654
32.867 20.6446 -1.67191
31.1925 19.288 -1.19981
30.0031 18.2385 -1.59499
31.9094 17.7345 -1.31453
31.9332 19.8675 -1.3589
34.0919 20.0146 -1.56244
30.4083 18.6967 -1.34054
30.4672 18.6762 -1.14805
31.4016 19.4431 -1.14506
30.1143 18.3883 -1.34037
33.4756 19.2573 -1.22783
33.0506 20.7303 -1.39826
30.311 18.6435 -1.6245
31.6448 19.657 -1.45255
32.1659 19.8401 -0.887863
30.4403 18.6191 -1.69869
32.5039 20.3538 -1.85252
30.7395 18.9431 -1.44438
31.4308 17.6474 -0.871422
31.0155 18.659 -1.02683
31.6645 19.6908 -1.77599
32.771 20.3158 -1.45533
30.1702 18.4666 -1.53368
30.6441 18.9399 -1.89794
32.5099 18.3768 -1.3475
32.5527 20.399 -1.83005
32.4581 19.6376 -0.895737
31.5073 19.2595 -0.871593
31.759 19.2149 -0.668415
32.8151 20.1461 -1.82604
32.5704 19.5421 -0.905506
33.9929 20.1348 -1.80042
31.7993 18.386 -0.678604
32.8873 20.6134 -1.29478
31.5301 19.2807 -0.888527
33.2413 20.8001 -1.53924
30.787 18.9532 -1.64827
33.0428 20.6944 -1.33949
31.3329 19.4107 -1.80033
32.5906 20.4419 -1.45192
30.0518 17.8842 -1.30509
33.3133 20.3063 -1.18024
32.6112 20.4375 -1.20725
32.0724 19.6446 -0.766205
29.9643 18.2046 -1.57226
30.2382 18.5833 -1.70669
30.0027 17.8391 -1.45966
31.3156 19.4017 -1.77845
31.2083 19.317 -1.53117
33.2939 20.7895 -1.69397
33.1234 20.5114 -1.16431
31.2422 19.3457 -1.5974
33.3511 20.7559 -1.68373
33.6302 20.5641 -1.73927
32.2541 20.0101 -1.10045
31.7416 18.9857 -0.980747
30.9982 18.6013 -0.714867
32.8259 20.6619 -1.81097
33.5275 20.3698 -1.25858
33.0591 20.5639 -1.26662
29.9103 18.056 -1.49514
29.9345 18.0659 -1.63921
32.9376 20.6951 -1.44701
33.351 20.7643 -1.7226
32.7101 20.621 -1.62022
31.1544 18.8814 -0.743401
30.0822 18.369 -1.37748
31.2674 19.2378 -1.05
31.4536 19.5266 -1.54609
31.9796 19.9441 -1.69767
32.6362 20.5113 -2.03561
31.4702 19.4765 -1.20425
33.391 20.7426 -1.63626
32.5721 20.4114 -1.47697
33.1008 18.8883 -1.15706
31.9677 19.6659 -1.92035
32.205 20.1464 -1.44667
30.2909 18.6041 -1.8015
32.6958 20.4982 -1.44373
31.6272 19.6751 -1.36822
31.7434 19.7843 -1.4418
30.094 17.8845 -1.09637
32.3971 19.2573 -0.804478
32.8333 20.6133 -1.57502
32.6239 20.2047 -1.91244
31.0377 19.2066 -1.39482
33.8492 20.3358 -1.54541
32.3848 18.2996 -1.22992
31.1926 18.0209 -1.08008
31.5983 18.159 -0.697025
30.7848 19.045 -1.48793
31.3743 19.3996 -1.35974
33.085 20.7579 -1.49991
31.8382 19.7843 -1.11194
32.2961 20.1882 -1.29881
32.4591 20.3311 -1.91396
31.6552 19.7198 -1.73845
33.2988 20.6087 -1.25931
30.1021 17.6592 -1.62225
32.0334 19.9926 -1.49424
30.8503 19.0293 -1.23893
33.1842 20.7581 -1.64786
32.4099 18.2743 -1.1092
32.1573 19.8235 -0.864212
32.9251 20.6751 -1.69475
31.3825 19.4649 -1.68344
31.8909 19.8938 -1.44921
31.9514 19.5415 -0.745838
30.8786 18.9898 -1.18785
32.6759 20.4635 -1.35438
32.6728 20.2676 -1.06923
31.515 19.0372 -0.906311
32.7314 20.5671 -1.21449
30.1797 18.5085 -1.49648
30.698 17.2987 -1.06035
32.5783 20.4085 -1.75096
32.5892 20.3378 -1.41815
30.6898 18.8002 -1.8476
30.4891 18.6543 -1.1965
29.998 18.1064 -1.25635
31.6316 19.6878 -1.39746
33.142 20.5927 -1.19635
33.2577 20.7462 -1.81321
32.2462 20.1109 -1.23789
33.3986 20.5845 -1.34225
30.5733 18.3087 -1.97753
31.2118 19.3048 -1.28359
32.7336 20.3281 -1.06777
31.3884 19.4166 -1.29583
32.9199 20.607 -1.78706
30.9515 19.0489 -1.13949
32.8399 20.5091 -1.17532
32.9798 18.8357 -0.990479
33.0051 18.8298 -0.925648
33.9434 20.188 -1.71276
31.8501 19.8086 -1.79005
32.4736 20.3227 -1.77212
29.9512 18.099 -1.44627
32.6669 18.4225 -1.32906
32.8902 20.6498 -1.34314
30.99 18.5648 -0.7071
30.7626 18.9439 -1.59296
32.1056 19.7433 -0.884804
31.9012 19.7428 -1.09943
32.4861 20.116 -1.03996
31.0109 18.779 -0.692326
33.2645 18.9913 -1.11021
31.2723 18.949 -0.699875
30.216 18.524 -1.40299
31.9534 18.6407 -1.1918
30.7252 18.4969 -0.823097
30.1909 17.6791 -1.43681
32.9766 20.0953 -1.10151
31.8478 19.8375 -1.34689
31.9026 19.8701 -1.79431
31.921 19.8291 -1.16529
32.3553 18.309 -1.14205
33.0289 20.4477 -1.55616
31.7335 19.3131 -0.723343
31.4983 18.3962 -0.677132
30.9408 18.6453 -0.737396
33.1414 20.7556 -1.75139
30.9061 19.0294 -1.83951
31.214 18.6404 -0.686016
30.0845 18.2867 -1.75757
30.0783 18.3942 -1.40143
31.6257 19.6477 -1.64721
31.8656 19.3131 -0.658279
32.6839 20.4476 -1.67536
31.6552 19.5813 -1.09831
30.5044 18.6801 -1.1033
32.4627 20.1882 -1.10125
31.3873 18.3009 -0.68647
33.4492 19.217 -1.15564
32.8962 20.51 -1.5211
32.7241 20.5656 -1.92884
30.3362 18.4954 -1.55856
30.2272 17.5936 -1.39965
31.8963 19.7509 -1.13499
33.5136 20.6287 -1.39041
30.7271 18.9515 -1.75449
32.1891 19.5477 -1.01221
31.7053 19.7291 -1.59059
30.4488 18.4945 -1.49071
32.3345 18.8553 -0.689083
30.0969 18.3459 -1.25613
30.8306 18.7379 -0.901501
31.0707 19.2172 -1.5043
32.3136 20.2527 -1.47863
33.0037 20.5522 -1.74442
30.8368 18.5911 -0.763947
31.9815 17.884 -1.25093
33.7069 20.446 -1.45509
32.0823 20.0102 -1.68063
32.0699 19.9548 -1.82723
31.3986 18.7612 -0.653595
30.502 18.696 -1.14817
32.6889 20.4396 -1.15551
30.84 18.6552 -1.83023
32.0049 19.9835 -1.39951
32.0846 20.0408 -1.34071
30.4866 18.4871 -0.96294
31.5432 19.5421 -1.19176
32.6015 20.321 -1.10034
31.4975 19.1526 -0.748772
32.5392 20.3953 -1.24439
31.1728 19.3297 -1.73423
30.9066 18.9986 -1.06061
32.0979 20.0333 -1.39851
30.1859 18.3645 -1.13969
32.3509 20.13 -1.10612
30.0758 17.8229 -1.773
32.9469 18.6003 -1.44636
31.166 18.766 -0.66074
32.6803 20.3477 -1.43832
32.9588 20.5963 -1.6464
31.0146 18.5097 -1.07339
32.4787 20.0468 -1.65685
31.6872 19.1341 -0.643787
32.1666 18.0077 -1.30442
30.041 17.9251 -1.34003
30.2289 17.6088 -1.42863
33.0396 20.7361 -1.74118
30.4208 17.3743 -1.39226
30.014 18.191 -1.12689
31.5046 17.9087 -1.13427
31.7044 19.66 -1.82204
30.64 18.5485 -0.858006
32.4943 20.0934 -1.59703
30.4204 18.4636 -1.02843
31.3993 18.4686 -0.665745
32.6621 20.5275 -1.46217
30.6538 18.6237 -0.904564
32.9015 18.7397 -1.3136
33.5298 20.6325 -1.42312
31.8466 19.8592 -1.44266
30.8305 19.0282 -1.70435
32.1235 19.9665 -1.17112
32.2774 20.202 -1.55224
30.5583 18.4597 -0.913757
32.5584 20.4034 -1.44416
30.2319 17.5961 -1.15407
30.9719 18.5442 -0.730473
31.5608 19.592 -1.24473
32.9292 19.7879 -1.1078
31.4938 19.0943 -0.660534
30.6528 18.8476 -1.83826
31.2043 19.091 -1.03555
31.8735 19.8569 -1.40866
30.7988 18.9892 -1.34957
31.4714 18.332 -0.681385
32.7386 18.6558 -0.807392
32.4856 20.177 -1.06104
30.2011 17.6735 -1.30396
31.5446 19.1463 -0.746918
31.6986 19.7348 -1.34513
31.7615 19.7214 -1.16017
30.0773 17.698 -1.6391
30.5248 18.7768 -1.70767
32.5139 20.4154 -1.96338
32.4436 20.2413 -1.54785
30.6898 18.9109 -1.68604
32.0354 19.8404 -1.10841
32.1494 18.4775 -1.19268
30.838 19.0656 -1.57997
31.3164 19.3676 -1.22281
32.6529 20.0698 -1.07305
30.6357 18.8543 -1.79676
31.5275 17.9058 -1.17866
32.3838 20.2016 -1.19067
32.6503 18.3623 -1.36975
30.1977 17.7302 -1.07844
30.0192 18.0446 -1.20723
30.0964 18.0962 -1.04029
30.5452 18.5991 -2.00039
33.7348 20.4427 -1.73724
33.1425 18.8867 -1.06113
32.4003 20.1166 -1.8885
30.1773 18.4166 -1.23801
31.8025 19.5961 -1.06248
31.4442 18.8961 -0.642918
31.4309 19.2513 -0.985775
32.6496 20.5003 -1.32481
31.7248 19.7308 -1.31278
31.6422 18.2821 -0.683372
31.9681 18.6476 -1.27082
30.3361 17.3479 -1.52175
32.2087 18.3648 -1.16148
30.2824 17.5432 -1.14228
32.72 20.5334 -1.79841
32.8175 20.2402 -1.08046
32.0442 18.012 -1.20298
31.1336 19.2525 -1.29373
31.734 19.7548 -1.68547
32.2498 20.0868 -1.15057
32.2093 18.1132 -1.22384
32.5611 20.3466 -1.14663
30.0958 18.3906 -1.63189
32.8124 20.3927 -1.10017
31.3421 19.437 -1.24808
33.6292 20.5448 -1.72036
32.4001 20.2762 -1.26912
32.6876 20.5163 -1.74489
31.1348 19.2655 -1.33282
32.3795 20.1862 -1.15492
33.5852 20.6321 -1.50964
30.2 17.6546 -1.45066
33.4459 20.7174 -1.64206
32.928 18.7204 -1.34044
32.5567 20.3957 -1.69382
31.279 18.9085 -0.697632
30.2384 17.5075 -1.76354
30.2507 18.5925 -1.44537
33.4489 20.588 -1.36411
30.5191 18.6492 -1.98897
30.4024 18.3933 -0.992496
32.43 20.2729 -1.56819
31.4517 19.5006 -1.2945
33.9485 20.1964 -1.72805
32.1941 19.889 -0.916065
32.9635 20.4345 -1.11491
32.9348 20.724 -1.49627
32.7059 20.5621 -1.66148
32.241 18.5702 -1.42352
32.3645 18.2732 -1.21354
32.0584 19.9868 -1.35078
29.9792 18.1499 -1.43957
32.3846 18.3198 -1.20363
32.393 20.2502 -1.84533
32.5011 20.3659 -1.88531
30.151 18.3088 -1.08069
30.6946 18.8247 -1.0633
31.1929 18.885 -0.702381
30.3036 18.5674 -1.56676
29.9762 18.0832 -1.36151
33.1937 18.8554 -1.04247
33.1668 20.79 -1.75246
30.1989 18.4411 -1.24216
32.6149 19.9952 -1.58432
32.8887 20.5623 -1.23288
31.6377 19.6909 -1.74428
33.3959 19.7026 -1.14443
31.9734 19.9167 -1.33348
30.7984 19.0077 -1.68853
32.9746 20.3879 -1.59909
32.2467 17.9731 -1.36609
31.6875 19.445 -1.09058
31.984 19.9817 -1.73257
31.3353 19.3434 -1.15588
32.0479 19.9388 -1.1532
30.2147 18.2191 -1.03108
32.6796 20.2946 -1.09228
30.6541 18.6131 -0.93288
32.2295 20.1289 -1.69762
32.4648 20.3917 -1.98257
32.2034 19.5145 -0.991798
32.9048 18.6048 -1.39916
31.6166 19.6824 -1.37361
30.7164 18.9725 -1.37963
32.0092 17.9024 -1.30626
31.0923 19.1992 -1.24296
30.704 18.9389 -1.44364
32.1129 17.9812 -1.2091
32.6956 20.52 -1.21896
30.3338 18.6724 -1.90536
32.2213 18.5327 -1.36341
30.2907 17.524 -1.39304
32.6502 20.4864 -1.55297
30.1868 18.4388 -1.75403
33.2786 20.7753 -1.64972
33.1933 20.6972 -1.38297
31.6031 19.6829 -1.66249
32.7456 20.515 -1.22865
32.0843 20.0308 -1.04082
32.787 18.5776 -1.53862
33.1537 20.7536 -1.60112
32.1196 19.8361 -0.976994
32.408 20.2884 -1.60341
33.4005 19.2661 -1.13854
31.837 19.2787 -0.670563
32.5319 20.4149 -1.97556
31.2764 19.3623 -1.33277
32.3341 20.2434 -1.40305
32.4428 20.3037 -1.89283
32.0888 20.0164 -1.79568
31.7492 19.6515 -1.09311
31.6985 19.2968 -0.659637
32.5484 20.4541 -2.04049
33.9734 20.1521 -1.76409
32.7609 20.6713 -1.7891
32.8186 20.4745 -1.48091
31.2953 19.404 -1.74464
30.806 19.0393 -1.44519
30.0792 18.3408 -1.49562
31.1361 18.7361 -0.696877
30.8969 19.0504 -1.29238
30.1213 18.4008 -1.60545
32.1398 19.9553 -1.11345
32.522 20.3608 -1.51186
31.0492 19.0836 -1.0514
31.1516 19.2457 -1.14402
31.0378 19.1935 -1.35303
31.4729 19.5128 -1.34107
30.8091 18.9133 -1.08805
31.7972 19.5625 -1.05936
33.7517 20.4562 -1.54517
33.1654 20.8353 -1.44479
30.1408 17.7382 -1.19162
31.9651 18.6764 -1.27866
32.4402 19.1511 -0.813702
32.6974 18.4807 -1.31863
32.8047 18.5644 -1.29515
32.1658 20.0164 -1.03094
30.4972 18.7442 -1.45631
33.5372 19.3009 -1.1597
32.357 19.1052 -0.712761
33.2899 20.6509 -1.40776
31.8338 19.8142 -1.3448
32.032 19.7652 -1.08992
32.3479 20.1509 -1.13757
32.305 20.2026 -1.39458
32.4781 18.3382 -1.39477
30.705 18.7609 -1.7764
30.1785 18.3478 -1.10042
31.4908 19.5476 -1.34802
31.4618 19.5427 -1.33826
32.9831 20.597 -1.73602
31.653 19.1848 -0.65786
32.7923 18.5819 -1.26405
33.2318 20.5885 -1.30449
31.4881 18.8149 -0.64209
31.022 19.1629 -1.63717
31.5072 19.3357 -0.960548
29.9527 18.0926 -1.66146
31.2939 19.3002 -1.13517
31.2816 19.242 -1.09982
32.644 20.4943 -1.9381
30.5604 18.8275 -1.55582
30.3586 17.6134 -1.02553
30.597 18.7338 -1.98148
31.4 19.3401 -1.04867
31.9421 19.151 -0.654259
32.7931 20.5948 -1.39378
33.0186 20.4881 -1.61713
30.6948 18.7886 -1.88511
31.3847 19.4592 -1.65288
32.5834 20.4073 -1.23769
30.6873 18.918 -1.42622
30.0798 18.1006 -1.24277
31.1658 19.3159 -1.48052
31.0532 19.2224 -1.39471
32.2328 20.1744 -1.4973
31.3411 18.9997 -0.725029
32.3563 20.2058 -1.23361
30.328 18.641 -1.60366
30.6364 18.857 -2.05613
31.6853 19.692 -1.79284
30.6507 18.8854 -1.25213
32.2058 19.8123 -0.870182
32.6763 20.5249 -1.71027
30.2689 18.4516 -1.74363
33.2137 20.7675 -1.72226
32.6011 20.2709 -1.06926
33.4121 20.5845 -1.42977
32.2289 20.1169 -1.38777
32.108 19.9677 -1.12791
32.3968 20.2917 -1.33943
33.7062 20.482 -1.70206
30.1561 18.433 -1.73518
32.7967 18.5554 -1.25317
31.4879 17.9226 -1.10567
31.1056 18.2226 -1.04075
32.1946 20.131 -1.73464
30.6738 18.672 -0.961906
30.8967 19.0794 -1.59886
30.9439 18.8429 -0.901012
31.618 19.6502 -1.67978
30.457 17.3798 -1.1083
30.263 18.4959 -1.18738
31.1537 18.7962 -0.684341
33.605 20.0737 -1.22374
33.7137 20.4523 -1.69846
32.0941 19.6431 -1.09734
30.9036 19.0956 -1.64514
33.158 20.4295 -1.15614
32.144 20.0415 -1.24419
32.1126 20.0037 -1.18208
30.5073 18.7768 -1.46154
31.503 19.5972 -1.73732
32.1532 19.7507 -0.826935
30.3507 18.6328 -1.42805
31.8495 18.7686 -0.638592
31.6452 19.6913 -1.43977
30.9288 19.0878 -1.6521
31.4657 19.2017 -0.844326
31.9877 19.6407 -0.765163
31.5204 19.5395 -1.34983
30.0161 18.2785 -1.4591
31.8018 19.2932 -0.656593
33.2178 20.487 -1.35032
30.7319 18.7593 -1.88992
31.4086 19.0932 -0.693558
32.9871 20.4295 -1.65614
33.7704 19.8028 -1.24174
32.8819 20.4515 -1.13791
31.4987 19.5772 -1.39967
32.1948 18.5321 -1.31029
32.545 20.3847 -1.64676
30.3191 17.7636 -1.01082
31.4646 17.6933 -0.858368
31.975 19.5616 -0.71452
31.4329 19.424 -1.1184
32.6618 20.5558 -1.49249
30.382 18.2693 -1.01458
30.9444 19.0052 -1.08327
31.3974 19.4626 -1.78773
33.0135 20.4162 -1.53467
31.7075 19.7532 -1.39156
33.4319 20.7312 -1.61987
30.2699 17.5786 -1.3114
30.1272 18.4055 -1.63461
30.6501 18.8845 -1.29496
32.3089 20.2162 -1.43344
31.948 18.5797 -1.198
31.1816 19.3273 -1.65953
30.6109 18.8025 -1.19745
33.5961 20.5774 -1.68556
32.8579 20.408 -1.09544
30.082 17.7198 -1.66751
31.8159 19.8197 -1.34216
29.9838 18.0925 -1.7504
32.0614 19.973 -1.24761
30.9618 19.0858 -1.1971
31.5454 19.6012 -1.4957
30.3312 18.65 -1.94559
33.3201 20.1789 -1.16259
31.5071 19.1103 -0.724861
32.4147 20.1591 -1.78194
29.9969 18.0005 -1.2877
33.0425 19.6366 -1.12406
30.7532 18.9894 -1.58424
30.2466 18.596 -1.74533
32.4479 20.2943 -1.69521
32.4062 18.3243 -1.24746
31.1823 19.2542 -1.18959
32.5887 20.4159 -1.43988
30.492 18.7541 -1.74332
30.2989 18.5391 -1.24088
32.0306 17.8638 -1.43352
30.3548 18.5213 -1.06731
32.3107 20.2402 -1.39146
30.5158 18.4662 -0.975475
30.0853 18.2348 -1.11038
31.3776 19.4888 -1.66179
30.8394 19.032 -1.44968
34.0565 20.049 -1.50368
32.943 20.6873 -1.74407
32.2505 20.1956 -1.54825
33.4359 20.7211 -1.78687
31.1489 19.2857 -1.34475
31.6919 19.7029 -1.33308
30.7081 18.5443 -0.796059
30.9911 18.4954 -0.729725
31.1783 19.3113 -1.40956
30.1545 17.7942 -1.04941
30.2982 18.5257 -1.16763
31.4521 19.4928 -1.80515
30.8908 18.8517 -1.63746
30.3137 18.6385 -1.353
30.2382 17.4572 -1.54116
32.1814 20.0423 -1.00449
32.9334 20.6391 -1.69917
33.7426 20.2772 -1.30529
33.1435 20.7768 -1.54413
32.7752 18.4871 -1.42573
30.0094 18.3042 -1.62947
30.0554 18.3345 -1.48815
31.839 19.4319 -0.706085
32.5793 18.4043 -1.26029
30.9353 18.737 -0.789932
31.5312 19.4514 -1.08316
32.1408 19.6507 -1.12906
30.0581 17.709 -1.57378
32.2142 19.8504 -0.921093
30.1865 18.2773 -1.85442
30.5529 18.7629 -1.58956
32.6108 20.4412 -1.68542
31.7882 17.8351 -1.44135
30.8642 19.0769 -1.5505
33.0589 20.6276 -1.3156
32.7565 20.6455 -1.74409
30.3067 18.6568 -1.94076
31.2024 19.3382 -1.30333
30.2341 17.6269 -1.30632
30.1257 18.3828 -1.29351
32.5083 20.3878 -1.29893
31.4693 18.208 -0.699959
32.3186 20.0406 -1.00897
32.1748 20.0818 -1.56055
31.8339 19.8255 -1.15165
31.0771 19.0976 -1.05833
30.1372 18.3892 -1.75275
31.2877 19.2055 -1.04596
30.5504 18.8098 -1.63553
33.726 20.4763 -1.51599
31.0504 19.1977 -1.69695
31.3341 19.4451 -1.45026
32.2111 20.1096 -1.77182
30.0453 18.0379 -1.19068
31.4291 19.4688 -1.51496
31.5394 19.4908 -1.09606
32.7167 20.1768 -1.4771
32.2805 18.486 -1.38236
32.3011 20.2339 -1.69122
30.0398 18.2595 -1.22352
32.3744 19.9886 -0.986946
32.708 20.5999 -1.59491
33.2826 20.7785 -1.56911
30.8574 19.0752 -1.60608
31.8108 19.4535 -0.71941
31.2338 19.1666 -1.05674
30.6392 18.8697 -1.51501
30.014 18.2568 -1.43395
31.8018 18.581 -0.641171
31.2636 19.3474 -1.382
32.2703 20.0995 -1.16071
32.1537 18.5213 -1.22352
31.9899 19.8927 -1.05832
31.3 19.3936 -1.19202
30.526 18.7949 -1.84286
30.5632 17.8607 -0.994057
32.7548 20.5791 -1.2472
31.3562 19.4778 -1.63665
31.5546 19.0197 -0.86293
30.5329 18.7662 -1.48512
30.9461 19.039 -1.09624
30.0852 18.2444 -1.19318
32.7246 20.5623 -1.586
33.5031 19.6085 -1.1565
30.4409 18.6283 -1.06521
33.0477 20.4124 -1.68725
33.582 19.3943 -1.18966
31.0995 18.5366 -0.704666
31.2702 19.3652 -1.64211
32.1455 20.1297 -1.61694
30.4775 17.4961 -1.03135
32.7832 20.6762 -1.85051
33.1509 20.7859 -1.71166
30.3124 17.5234 -1.3194
30.7113 18.9603 -1.83644
30.3864 18.5391 -1.05948
31.6608 19.511 -1.07492
30.3873 18.7069 -1.98653
32.1475 19.642 -1.10038
29.9316 18.0709 -1.53741
32.7901 20.5299 -1.22298
30.2736 18.5129 -1.65612
32.2209 20.0157 -1.87192
32.7178 20.5325 -1.27592
32.0172 18.6396 -1.2235
30.0816 18.1884 -1.19353
29.9598 18.0867 -1.40191
32.5111 20.3733 -1.86634
30.6488 18.8997 -1.59848
32.3345 20.2528 -1.49116
29.9617 18.239 -1.5032
31.6899 19.7244 -1.54452
31.7431 19.743 -1.64905
31.452 19.5673 -1.68441
30.2542 17.8492 -1.0095
32.2538 20.1516 -1.54596
32.7391 20.4912 -1.19925
30.6882 18.9086 -1.39469
32.1067 19.6725 -1.10247
33.2807 20.3447 -1.18917
30.9076 19.0956 -1.39223
32.9093 20.688 -1.70136
31.3575 19.4324 -1.34499
32.3538 20.1845 -1.14841
30.5196 18.6645 -1.11902
31.0223 18.1091 -0.794697
31.1187 18.8939 -0.722939
30.8892 19.0594 -1.33761
30.8468 18.8446 -1.03894
30.6525 17.1149 -1.29675
31.712 18.3982 -0.673061
31.5232 18.6297 -0.649494
32.8016 20.66 -1.89231
31.2946 19.4037 -1.44917
33.2549 20.4183 -1.39307
29.9943 18.2448 -1.64302
30.9347 19.103 -1.39121
32.251 19.9937 -1.0471
33.6388 19.4385 -1.16717
30.3591 18.7399 -1.99567
31.4804 19.4059 -0.957012
32.9792 20.506 -1.1801
32.5828 20.4011 -1.41924
30.0926 18.3184 -1.27072
30.9077 17.3185 -1.05842
32.6591 20.4911 -1.78598
33.0478 20.399 -1.64813
32.8483 20.608 -1.28387
31.8992 19.8918 -1.25075
32.4931 20.3455 -1.73588
31.3675 19.4378 -1.63245
32.2144 20.1706 -1.45243
32.6694 20.3801 -1.92924
33.8094 19.5782 -1.23307
30.0036 18.1882 -1.75201
32.4847 20.3152 -1.19289
31.3184 19.149 -1.00296
31.994 18.597 -1.1499
32.9613 20.6792 -1.78405
32.2907 20.1106 -1.8364
32.431 19.2442 -0.836525
31.7438 19.2441 -0.673336
33.038 20.5434 -1.19763
33.015 20.561 -1.28263
30.5027 18.7936 -1.29879
32.1277 19.9811 -1.09031
30.3338 18.6016 -1.29801
32.4958 20.001 -1.85629
31.0554 19.14 -1.10959
31.9976 19.3614 -0.698963
32.7056 18.4451 -1.35772
31.8407 19.3503 -0.654869
31.8375 18.5569 -0.648563
32.0818 19.9993 -1.24791
33.3796 20.5531 -1.34697
30.9285 18.8723 -1.90555
30.3158 18.5771 -1.24497
30.0785 17.8149 -1.18325
31.1106 17.3449 -1.05705
31.0809 19.2311 -1.69897
29.9568 18.1501 -1.68805
31.9198 19.8735 -1.81067
31.5422 17.9427 -0.748436
32.9837 20.731 -1.5537
30.1616 18.0486 -1.02986
30.0638 18.0582 -1.10499
32.413 20.2635 -1.89254
31.4094 19.4763 -1.80542
33.1565 20.3426 -1.14783
33.3486 20.5844 -1.34939
32.0448 18.4957 -0.672001
31.4556 19.5402 -1.64406
30.8971 18.5215 -1.04245
30.7112 18.8074 -1.09291
30.6763 18.8486 -1.44611
32.7972 20.514 -1.44713
32.207 20.1083 -1.43584
30.7874 18.9391 -1.25428
33.3894 18.9723 -1.11629
32.8775 20.429 -1.11795
32.2633 18.4715 -1.33974
30.4932 18.4129 -1.54385
32.1506 20.0813 -1.54328
30.6151 18.7401 -1.05515
31.6754 19.6667 -1.23283
32.5908 20.2917 -1.10016
32.1907 20.0985 -1.34637
31.1037 18.7461 -0.701649
33.2195 20.5536 -1.23861
32.1655 18.4734 -1.22182
33.7754 20.4482 -1.82972
32.3966 20.2874 -1.84866
32.6976 20.4576 -1.18765
33.2518 20.5922 -1.34214
30.4884 18.6008 -1.48278
32.5184 18.3237 -1.34504
33.3776 19.0488 -1.14358
30.0551 18.0989 -1.23899
32.2892 19.3101 -1.16468
33.4732 20.7029 -1.69389
32.4962 20.339 -1.49875
32.119 18.0373 -1.33879
31.397 19.4793 -1.39692
30.2814 18.3902 -1.04389
32.9733 20.7187 -1.52034
32.9875 18.7115 -1.45314
30.9865 19.1412 -1.7579
32.7438 20.5463 -1.69184
33.1726 19.4041 -1.1289
32.4898 20.2 -1.12767
30.0662 17.8477 -1.27838
32.4133 20.2889 -1.92713
32.5669 18.367 -1.21428
33.0992 20.7317 -1.78486
30.1404 18.0149 -1.02328
30.3636 17.5966 -1.01256
32.0433 20.003 -1.0442
30.4318 18.4412 -1.01426
30.4098 18.6838 -1.29682
31.4338 18.7216 -0.649624
31.4236 19.082 -0.717422
31.4345 19.5203 -1.50581
31.033 19.1603 -1.30371
31.489 19.5808 -1.49293
30.0156 17.9608 -1.35535
31.9517 19.8966 -1.38725
31.3525 19.4467 -1.59085
31.7021 19.3343 -0.70393
31.8884 19.86 -1.63728
33.3963 20.5909 -1.39632
32.1533 18.4361 -1.17894
32.3315 20.2796 -1.41816
33.2565 20.7764 -1.59962
33.5452 20.614 -1.44675
30.5543 18.8538 -1.98986
33.3424 20.7715 -1.79673
32.8553 20.438 -1.09821
31.5141 19.3789 -1.00579
32.6797 19.4579 -0.92477
33.0385 20.5937 -1.2374
32.0637 19.9824 -0.968826
32.2021 18.0106 -1.4354
30.0444 18.281 -1.25083
32.2956 20.2246 -1.60813
32.6274 20.4839 -1.50458
31.9811 19.9425 -1.34832
32.5073 20.3747 -1.89445
32.1556 20.0862 -1.59491
31.2632 18.5989 -0.685432
32.5234 20.3807 -1.89912
32.7734 20.6225 -1.66236
32.2483 20.0953 -1.19419
33.4978 20.5981 -1.34016
30.9238 18.7948 -1.60536
33.5379 20.5942 -1.39212
31.0393 18.7968 -0.747002
31.568 19.6341 -1.24269
32.2348 20.1339 -1.41245
32.231 20.1059 -1.7004
30.3311 18.6176 -1.58549
32.8699 20.2998 -1.46135
29.9929 17.9227 -1.45415
32.2059 19.5984 -0.982368
30.4171 18.6597 -1.82246
32.282 20.2074 -1.59797
30.3422 18.4981 -1.04613
31.6017 19.6922 -1.69634
31.1353 19.235 -1.11315
33.3691 19.0526 -1.13034
32.6255 18.3499 -1.31478
32.1627 20.0961 -1.33728
30.9551 18.801 -0.890503
31.6042 19.7201 -1.7051
33.0328 20.5807 -1.20116
33.0357 20.7112 -1.38086
31.0402 18.7936 -0.776794
32.7498 20.6035 -1.74066
31.6785 18.5712 -0.652725
33.0787 19.791 -1.16187
31.6475 19.5443 -1.06558
32.5279 20.3662 -1.5472
30.1545 18.4818 -1.46172
31.45 18.0197 -0.739662
32.8593 20.4513 -1.13352
30.1019 18.4326 -1.68435
32.757 20.6342 -1.782
33.041 20.652 -1.32538
32.3851 20.2296 -1.81303
30.5534 18.7935 -1.7532
30.3534 17.4695 -1.32645
30.879 19.0318 -1.49265
30.4053 18.6563 -1.79868
32.1848 20.0974 -1.38622
31.5819 18.3321 -0.683353
32.2577 20.1274 -1.20259
30.8347 18.8981 -1.08381
33.1107 19.9535 -1.0975
31.7893 19.5949 -1.07887
32.4879 20.2483 -1.13799
30.4558 18.8072 -2.03831
33.4429 19.1429 -1.19983
30.2344 18.5061 -1.37837
30.0406 18.2785 -1.3481
30.0948 18.2909 -1.19714
29.9657 18.0387 -1.39405
32.5946 20.4362 -1.79539
33.1378 20.0523 -1.11301
31.1387 18.838 -0.699017
31.4075 19.2351 -1.04558
31.5336 19.5628 -1.47843
32.6032 20.4546 -1.83488
30.7997 19.0092 -1.48812
31.8391 19.446 -0.736382
31.8874 19.8082 -1.18913
32.4578 20.3766 -1.96112
29.9892 18.0286 -1.30894
32.3924 20.2008 -1.79746
29.9648 17.9322 -1.69174
30.5414 18.7986 -1.54503
32.1409 20.0618 -1.49448
30.4961 17.9267 -0.998039
30.8894 18.6426 -0.774353
30.5578 18.7483 -1.46818
32.5282 20.2281 -1.4855
33.5705 19.8155 -1.17939
30.6924 18.9453 -1.79508
31.127 19.2393 -1.25363
32.466 20.3416 -1.27066
32.6988 20.5333 -1.4544
30.0546 18.345 -1.72672
31.4158 19.3943 -1.13819
32.0187 17.8669 -1.28053
31.612 19.1122 -0.644512
31.3341 19.3858 -1.15678
30.6574 18.6446 -0.942463
32.2551 19.2614 -0.713657
32.5935 18.3545 -1.25698
33.1834 20.7824 -1.78835
31.514 19.5446 -1.43187
33.7673 20.4572 -1.82598
33.7591 20.4543 -1.80193
31.1214 18.2482 -1.04484
33.9983 20.1716 -1.82978
33.9764 20.2063 -1.79599
33.9099 20.2553 -1.66788
33.8281 20.3838 -1.54294
34.088 20.0676 -1.57931
34.036 20.1772 -1.52028
33.7958 20.3875 -1.47379
33.8092 20.3281 -1.47766
33.8077 20.3015 -1.46317
32.1053 19.532 -1.15376
33.5779 20.53 -1.41949
34.0368 20.044 -1.45993
30.9052 19.1072 -1.68101
33.3596 20.5432 -1.34361
33.7471 20.2531 -1.29562
31.5466 19.0597 -0.644943
32.5558 18.4191 -1.43335
32.538 20.3882 -1.1644
32.9004 20.6588 -1.63119
30.6761 18.9 -1.59434
31.7852 19.7375 -1.14679
31.023 19.0962 -1.8463
32.2432 20.1534 -1.49306
32.2852 20.1031 -1.19192
30.1264 18.2818 -1.81166
32.348 20.1851 -1.78149
29.9455 18.1451 -1.65099
30.1873 18.3124 -1.07244
31.1623 19.1445 -1.04692
31.4449 19.4986 -1.49663
30.7417 18.6465 -1.81359
32.0602 20.0289 -1.49722
31.2891 19.3629 -1.43631
30.5604 17.2795 -1.10735
30.8832 19.0315 -1.20287
31.2557 19.3963 -1.42987
29.9408 18.0966 -1.59034
33.1093 20.7866 -1.59228
31.2472 19.2763 -1.36312
31.9289 19.5227 -0.713814
31.7157 19.7317 -1.64143
31.4678 19.5806 -1.6583
31.2791 18.9536 -0.730648
31.0332 19.1768 -1.59886
32.8866 20.6661 -1.39281
32.9473 20.7026 -1.49442
31.7887 19.809 -1.54463
31.9716 19.9842 -1.70996
31.522 19.3213 -0.91925
31.5126 17.9246 -1.15461
33.0426 20.73 -1.78203
32.7435 20.5629 -1.33908
32.4353 20.261 -1.93998
30.4207 18.6851 -1.88816
31.1383 19.2617 -1.60674
31.3523 19.4313 -1.30074
31.9384 19.8979 -1.34031
31.7393 19.7931 -1.69986
31.452 19.4783 -1.20229
30.0006 18.1688 -1.32679
31.9841 19.594 -0.742538
30.7641 18.9942 -1.6786
32.2343 19.9461 -0.99538
32.1235 20.0363 -1.41909
33.0093 20.6607 -1.31307
31.2514 18.1833 -0.729202
30.773 18.593 -0.827152
32.9894 20.6057 -1.23749
32.8458 20.5883 -1.24634
32.6368 20.4849 -1.60219
29.9649 18.2138 -1.47988
31.2892 19.3543 -1.79315
31.4133 19.4999 -1.57874
31.5017 19.279 -0.851078
32.8097 18.5967 -1.29965
33.3208 20.7929 -1.75919
33.3148 20.7831 -1.73895
33.5074 20.6882 -1.76154
32.8167 20.6366 -1.92253
32.7923 20.6694 -1.87167
33.7696 20.4112 -1.79145
33.4402 20.726 -1.66295
32.7571 20.355 -1.12241
33.7655 20.4015 -1.77592
33.1444 20.7618 -1.68201
33.2874 20.7527 -1.6494
32.7954 20.6825 -1.8002
33.144 20.7765 -1.64228
33.6742 20.5099 -1.6519
32.8982 20.6301 -1.74339
33.0007 20.7414 -1.64041
33.6299 20.5785 -1.60286
33.5909 20.629 -1.55323
32.9932 20.7344 -1.59717
33.2049 20.8096 -1.50204
33.3846 20.7337 -1.51686
33.5951 20.5976 -1.54128
33.9486 20.2204 -1.67
32.9614 20.7392 -1.58424
33.369 20.7346 -1.48333
32.7431 20.6048 -1.69873
32.8534 20.646 -1.63894
33.0611 20.7787 -1.49615
33.1901 20.8047 -1.44256
33.3733 20.7099 -1.47746
33.8694 20.3146 -1.57226
33.5178 20.6841 -1.4346
32.8388 20.6339 -1.59767
33.1646 20.7874 -1.39944
33.3445 20.6822 -1.39863
33.8602 20.231 -1.49678
32.8244 20.5936 -1.54499
33.1613 20.7632 -1.37854
33.3405 20.6062 -1.39839
33.8008 20.3255 -1.4404
32.907 20.6936 -1.44018
33.2159 20.5934 -1.40403
32.819 20.5548 -1.51553
33.2617 20.4728 -1.43722
32.894 20.6877 -1.39433
33.0088 20.6986 -1.34239
33.2621 20.4553 -1.42863
32.8239 20.4948 -1.50166
33.2705 20.3999 -1.41658
33.3083 20.6113 -1.2806
32.9973 20.6902 -1.30715
33.1611 20.5977 -1.2883
32.7392 18.4449 -1.40901
32.7579 20.5821 -1.38902
33.0343 20.5666 -1.32743
33.1403 20.6451 -1.2486
33.033 20.5528 -1.31789
33.0085 20.5938 -1.28451
33.1295 20.6107 -1.22816
32.6832 20.244 -1.09511
33.8248 20.0182 -1.28819
32.9749 20.626 -1.22726
32.9875 20.5893 -1.20942
33.1295 20.5322 -1.18762
32.7389 20.5496 -1.29255
32.7201 20.1696 -1.49348
32.846 20.5622 -1.23007
32.9974 20.5591 -1.19079
32.8425 20.5431 -1.18884
33.155 20.4193 -1.18317
32.7083 20.5107 -1.24282
32.5867 20.4562 -1.29023
32.9856 20.4892 -1.14745
32.9639 20.506 -1.1479
33.1438 20.3888 -1.14471
32.5937 20.4407 -1.24964
32.9643 20.46 -1.12787
32.814 20.4579 -1.12945
33.1988 20.1632 -1.14572
32.7 20.4056 -1.18686
32.8216 20.4074 -1.12541
32.9989 20.264 -1.11226
32.6946 20.3277 -1.14775
31.1973 19.1443 -1.04581
32.6958 20.3476 -1.10205
33.2845 19.7931 -1.13567
32.6616 20.3335 -1.07974
30.3566 18.6577 -1.72572
33.2524 18.9425 -1.08974
30.2945 18.3457 -1.01368
31.8281 19.3799 -0.66885
30.6154 18.5783 -0.956924
33.0369 18.7889 -0.971813
31.3973 19.4846 -1.6965
33.028 18.794 -0.950638
31.7919 19.7479 -1.19642
32.1106 20.0534 -1.7367
30.8009 19.0236 -1.40826
30.4964 18.8146 -1.33202
32.0402 19.9557 -1.29189
31.3221 19.3517 -1.10453
30.1924 17.5202 -1.56301
32.1484 19.9834 -0.966629
31.4999 19.5948 -1.69586
33.1894 20.6084 -1.24138
31.6639 19.2588 -0.659378
31.9931 19.8326 -1.09957
32.2098 20.1288 -1.77773
32.5041 20.3584 -1.58126
31.379 18.494 -0.675484
30.3264 18.2414 -0.993183
31.4897 19.103 -0.684158
31.4505 19.4993 -1.5452
30.4756 18.8067 -2.06384
30.5641 18.8263 -1.3148
32.6272 20.2463 -1.08167
30.2811 17.4187 -1.54305
32.4496 18.2951 -1.31445
31.9983 19.8912 -1.15108
32.0517 20.0032 -1.59586
32.6774 20.5426 -1.85897
32.5327 18.2987 -1.34449
30.7577 18.5809 -0.792889
32.1172 19.6974 -0.883984
30.0646 18.3004 -1.1151
32.0809 19.6828 -0.800137
30.0496 17.92 -1.78824
32.8352 18.5898 -1.29805
30.3797 18.7367 -2.00988
32.5994 20.4305 -1.52749
30.6474 18.8526 -1.29178
32.3514 20.0928 -1.09052
33.4926 20.6064 -1.39049
32.2576 18.1078 -1.28735
32.3302 20.2028 -1.74672
32.7423 20.3948 -1.43258
30.2814 18.4579 -1.09019
31.1287 18.7149 -0.689873
31.5865 19.6351 -1.59506
32.5812 20.2592 -1.89361
30.9127 18.7035 -0.750023
30.4326 18.5846 -1.48883
32.364 20.1632 -1.80971
32.2917 20.1519 -1.29568
30.8453 18.84 -1.87822
33.4327 19.4914 -1.15824
33.2383 20.7952 -1.49865
32.7514 20.531 -1.24981
32.6615 20.545 -2.04426
32.7475 20.6029 -1.97248
33.3817 20.7487 -1.73996
32.7422 20.63 -1.93559
32.6442 20.5469 -1.99253
33.193 20.777 -1.69667
33.3832 20.7447 -1.71319
33.6215 20.6024 -1.75621
33.0777 20.7442 -1.75591
32.7303 20.608 -1.89052
32.535 20.4452 -1.99546
33.0453 20.7387 -1.69478
33.3349 20.7515 -1.64063
32.706 20.5851 -1.83987
30.2813 18.4849 -1.10736
32.5185 20.4344 -1.98756
32.7894 20.6461 -1.74757
33.0312 20.7373 -1.65067
33.1391 20.78 -1.59619
33.569 20.5996 -1.65325
30.2442 18.6216 -1.76891
32.5987 20.4525 -1.89242
32.6988 20.552 -1.7963
32.5158 20.3691 -1.93822
32.6885 20.5325 -1.75061
33.0513 20.4432 -1.74229
33.0676 20.3695 -1.78558
33.0934 20.7765 -1.49059
33.2223 20.7787 -1.45402
32.6019 20.4185 -1.81431
32.7515 20.632 -1.64763
33.0374 20.3793 -1.72737
32.4952 20.3042 -1.84571
32.679 20.4962 -1.69205
33.0029 20.4238 -1.68598
33.1828 20.7866 -1.40093
33.6768 20.5278 -1.47179
33.7012 20.4804 -1.47456
33.4328 20.628 -1.42067
33.445 20.5981 -1.39645
32.4859 20.2992 -1.79463
32.5652 20.4072 -1.72512
32.7325 20.5858 -1.55232
32.642 20.486 -1.64122
33.3141 20.5407 -1.43436
32.4564 20.3082 -1.73741
33.4464 20.5544 -1.38433
32.5658 20.3618 -1.69168
32.7245 20.5522 -1.53923
33.0345 20.726 -1.34338
33.2991 20.5419 -1.40646
32.4303 20.0379 -1.90767
32.7222 20.5468 -1.49615
32.8309 20.6029 -1.45
32.3768 20.1473 -1.83311
32.6302 20.4498 -1.55253
32.7013 20.5466 -1.49187
32.8163 20.6092 -1.42384
32.5283 20.377 -1.59848
32.3287 19.8755 -1.95803
32.4342 20.2954 -1.65115
32.5245 20.3518 -1.58932
32.4115 20.2843 -1.63439
32.5912 20.4719 -1.48207
32.7798 20.5941 -1.34556
33.0542 20.6012 -1.28646
33.202 20.5665 -1.24212
32.292 20.2292 -1.64458
33.1759 20.6027 -1.21598
32.4101 20.2488 -1.58864
32.7709 20.5782 -1.30779
32.0801 20.0414 -1.78367
32.7627 20.3445 -1.4388
32.7648 20.5757 -1.29363
32.2636 20.2308 -1.59987
32.7109 20.4168 -1.38509
33.1841 20.5386 -1.18699
32.1932 20.1104 -1.69286
32.2561 20.2027 -1.59087
32.4617 20.0627 -1.62588
32.6395 20.4962 -1.29749
32.8773 20.5434 -1.20765
31.7841 19.7791 -1.79747
32.1526 20.0974 -1.63848
32.4086 20.1672 -1.55916
32.6018 20.0402 -1.58091
32.8494 20.5815 -1.1999
32.3413 20.2879 -1.4851
32.7038 20.1013 -1.49807
32.0552 19.9951 -1.70306
32.3342 20.2876 -1.44894
32.604 20.0023 -1.56392
32.5282 20.4453 -1.32777
32.2761 20.1168 -1.57114
32.4768 20.2639 -1.43008
32.523 20.4416 -1.31449
32.6273 20.4755 -1.2567
32.8796 20.5079 -1.17646
32.5186 20.4363 -1.30195
32.8758 20.4934 -1.15902
32.4271 20.3349 -1.35587
32.5235 20.3991 -1.29359
32.1316 20.0579 -1.54703
32.4097 20.3238 -1.35525
32.6219 20.4349 -1.21083
32.7376 20.46 -1.1721
32.7411 20.4396 -1.15929
32.4982 20.3508 -1.24223
32.3013 20.2409 -1.35364
32.7416 20.3984 -1.13763
32.8914 20.3983 -1.10653
32.198 20.1314 -1.40042
32.2975 20.1878 -1.34685
32.7361 20.3546 -1.10387
32.6006 20.3418 -1.14424
32.9537 20.1977 -1.10606
32.1803 20.1389 -1.35943
32.4866 20.293 -1.15075
32.7166 20.3753 -1.0647
32.9724 20.1487 -1.10868
32.382 20.2337 -1.19862
32.2865 20.1389 -1.25137
32.1763 20.0655 -1.55189
32.1544 20.088 -1.30064
32.2827 20.1074 -1.24249
30.8473 19.0456 -1.49683
32.4908 20.2383 -1.11047
32.6014 20.2437 -1.04735
32.1546 20.0524 -1.28923
32.0471 19.9796 -1.29499
32.3714 20.1085 -1.12113
32.3836 20.0976 -1.09922
33.2951 19.3282 -1.17181
33.3552 19.1962 -1.19743
31.9101 19.9038 -1.32946
33.3889 19.0933 -1.19313
32.3456 20.0847 -1.0564
31.9069 19.8612 -1.28371
32.1113 19.9872 -1.15165
32.0001 19.9367 -1.20264
31.8954 19.8445 -1.24368
32.0028 19.9013 -1.18703
32.1065 19.9486 -1.10452
30.776 18.6746 -1.51144
32.3411 19.9988 -0.990944
31.8952 19.8358 -1.20454
32.0453 20.037 -1.03871
32.3401 19.9438 -0.977318
31.8641 19.8083 -1.18361
32.1463 20.0302 -0.995529
32.9382 18.7896 -1.24648
31.876 19.7534 -1.1946
32.1785 19.9835 -0.973133
32.9529 18.7552 -1.25735
31.8672 19.7598 -1.1773
32.2033 19.9443 -0.976021
31.8643 19.7263 -1.16106
32.2021 19.8953 -0.943203
33.1969 18.8704 -1.05717
32.1909 19.854 -0.907867
32.5452 18.3434 -1.38977
32.9773 18.8064 -0.970242
32.1476 19.7447 -0.813709
32.9622 18.7506 -0.913387
32.3932 19.2754 -0.810921
32.0028 19.6458 -0.789925
31.2796 18.981 -0.70525
33.0539 20.4267 -1.66109
31.9848 19.4877 -0.706078
32.056 19.967 -1.08043
31.6973 19.2886 -0.695133
31.694 19.2432 -0.697365
30.7122 18.9012 -1.19374
33.1274 20.6219 -1.33698
30.4335 18.6785 -1.259
30.0632 17.792 -1.72667
30.2536 18.6289 -1.79988
31.1431 19.1316 -1.01038
32.6043 20.2519 -1.09046
30.313 17.5101 -1.12937
30.5808 18.8392 -1.3578
32.0961 18.5859 -0.659767
31.5968 19.6406 -1.3472
32.6789 20.5186 -1.47174
30.9868 18.528 -1.03462
32.9868 20.5805 -1.16393
30.4412 18.7401 -1.34624
30.3383 18.5473 -1.5626
31.7846 19.6881 -1.10692
31.0654 19.1594 -1.18857
30.4491 18.7212 -1.81715
33.0923 20.5752 -1.33198
31.1387 19.2372 -1.76459
31.1963 19.2988 -1.24735
32.0404 19.9066 -1.1918
31.5397 19.1256 -0.659481
31.6961 19.7022 -1.29013
30.2043 17.7428 -1.04365
32.7009 20.5097 -1.60049
30.2436 18.5362 -1.6641
31.9052 19.8965 -1.54109
32.6323 20.5437 -1.96667
33.3374 20.7752 -1.64578
32.7803 20.6815 -1.75592
33.3377 20.75 -1.60454
32.541 20.3862 -1.93957
32.6076 20.4761 -1.8524
33.232 20.8276 -1.5265
32.6202 20.4719 -1.85747
32.7224 20.518 -1.78919
33.0516 20.4895 -1.73468
33.2028 20.8222 -1.47386
32.958 20.709 -1.54037
32.5821 20.4292 -1.74924
32.7382 20.6237 -1.61342
32.5371 20.2872 -1.84694
32.5339 20.2663 -1.82225
32.6846 20.4584 -1.66122
32.6962 20.5847 -1.54268
33.0516 20.352 -1.63793
32.7033 20.5844 -1.51231
33.0168 20.7314 -1.35584
33.0355 20.3395 -1.59753
33.2922 20.5864 -1.3864
33.2968 20.5863 -1.36829
32.8843 20.5043 -1.47892
32.8904 20.6719 -1.36139
32.5149 19.9842 -1.88372
32.2863 20.147 -1.80639
33.1099 20.5666 -1.34872
32.2546 20.1365 -1.78773
32.4474 20.063 -1.80232
32.4197 20.0943 -1.76834
32.2371 20.1316 -1.74398
32.1379 20.0457 -1.7909
32.123 20.0388 -1.75808
32.8214 20.2852 -1.46297
32.0348 19.956 -1.80139
32.5819 19.9884 -1.69013
32.0122 19.9743 -1.7931
32.1901 20.0997 -1.64306
32.5709 19.9914 -1.67007
32.6349 20.2903 -1.43124
32.0005 19.9559 -1.75992
32.5336 20.4068 -1.33469
31.9159 19.8469 -1.82444
31.8978 19.8631 -1.79121
32.2793 20.1517 -1.53648
32.0794 20.0024 -1.64382
31.5809 19.5999 -1.55201
31.8809 19.8809 -1.75147
31.8517 19.8934 -1.73135
32.0593 20.0257 -1.60624
32.5077 20.3798 -1.25773
31.8468 19.8876 -1.7076
32.2462 20.1485 -1.44667
31.9561 19.9308 -1.64919
32.1419 20.0748 -1.50538
31.767 19.774 -1.77666
31.7507 19.7932 -1.73944
31.85 19.8458 -1.68628
32.1409 20.0919 -1.44217
32.14 20.0269 -1.44709
32.7529 20.3123 -1.08836
31.6167 19.7062 -1.7286
32.0032 19.9818 -1.44423
31.5292 19.5686 -1.80727
31.8098 19.8257 -1.59344
31.8967 19.8977 -1.49705
31.9877 19.9496 -1.44182
32.1203 20.0138 -1.3967
32.6509 20.2984 -1.10024
31.5169 19.5771 -1.78002
31.9869 19.9538 -1.39362
32.2907 20.1214 -1.21619
32.1795 20.0518 -1.24113
32.0772 19.9868 -1.28917
32.3789 20.1533 -1.13745
31.7868 19.8013 -1.50046
31.8794 19.8764 -1.40894
31.7769 19.7959 -1.4605
32.4845 20.1539 -1.04706
31.4012 19.4869 -1.73398
31.6692 19.7195 -1.51272
31.9504 19.8988 -1.29766
32.1721 20.0165 -1.20153
31.6613 19.6964 -1.48523
32.2468 20.0527 -1.14367
31.7486 19.779 -1.40772
32.3767 20.0816 -1.06129
32.0486 19.9462 -1.20261
32.15 19.9777 -1.15599
32.2723 20.0278 -1.11184
31.4485 19.5382 -1.59174
31.9419 19.8875 -1.25577
31.7522 19.7605 -1.39107
31.8327 19.8328 -1.30249
32.1362 19.9462 -1.13972
31.7311 19.7498 -1.34784
31.8335 19.8064 -1.2888
31.9327 19.8661 -1.23003
31.9272 19.8501 -1.20291
32.0427 19.8904 -1.15561
33.4159 19.147 -1.19798
31.8243 19.7863 -1.24866
33.4491 19.0855 -1.18728
32.2499 19.9677 -1.02628
31.8077 19.7886 -1.23749
33.4244 19.0642 -1.14983
31.5094 19.5891 -1.43282
31.4096 19.4865 -1.48419
32.0771 19.9941 -1.00204
31.4073 19.4557 -1.49363
31.5985 19.6389 -1.30305
31.9056 19.7966 -1.14585
32.224 19.9336 -0.954189
31.4005 19.4569 -1.44289
31.5881 19.6055 -1.28835
32.0899 19.9207 -0.977226
32.2295 19.8956 -0.940052
31.4031 19.4128 -1.43102
31.6873 19.6546 -1.19307
32.2408 19.5809 -1.03626
32.2224 19.8708 -0.907234
31.46 19.5376 -1.2954
31.5835 19.5918 -1.24065
32.2264 19.8456 -0.902065
31.6797 19.6359 -1.15824
31.3814 19.3998 -1.37601
32.6507 18.4809 -1.44468
31.6774 19.6139 -1.13639
31.4414 19.5309 -1.23624
31.6542 19.6207 -1.10954
32.6831 18.3577 -1.42984
31.5453 19.5363 -1.14558
32.5007 18.3525 -1.44738
32.6614 18.3789 -1.40136
31.2474 19.3159 -1.37691
31.3477 19.4034 -1.29007
32.4905 18.374 -1.43978
32.0742 19.7836 -0.857944
31.6493 19.5554 -1.08604
32.0885 19.7032 -0.840984
31.2457 19.3363 -1.33892
31.4311 19.4492 -1.18824
31.5461 19.5259 -1.11211
32.6171 18.3878 -1.32183
31.3093 19.4341 -1.22718
31.2247 19.3001 -1.30335
32.4559 18.3339 -1.34884
32.6118 18.3568 -1.29294
31.9762 18.6917 -1.30871
32.45 18.3157 -1.32701
31.5383 19.4404 -1.05804
31.9786 18.6646 -1.30039
32.1888 18.5141 -1.28879
32.3992 19.2775 -0.834103
32.8591 18.7452 -0.94685
31.4011 19.3942 -1.09685
32.4265 18.3233 -1.28601
32.412 19.2591 -0.833084
31.5462 19.3976 -1.04184
32.7345 18.8731 -0.820827
32.3672 18.3239 -1.17291
31.1673 19.2452 -1.17361
32.3573 18.3252 -1.15482
31.1661 19.1942 -1.15733
32.1355 18.4572 -1.15529
32.131 18.036 -1.30028
32.1424 18.4173 -1.1484
32.1384 19.3618 -0.709358
32.4189 19.0862 -0.731457
31.953 19.49 -0.715366
31.2654 19.1955 -1.05028
31.9396 19.4314 -0.681114
31.8144 19.4042 -0.722687
31.586 19.3235 -0.832531
31.5749 19.3213 -0.810303
31.47 19.2114 -0.856426
31.8135 19.3132 -0.673515
31.6684 19.2775 -0.676445
31.5411 19.0008 -0.651268
31.4897 17.8841 -1.09774
31.4636 17.9449 -1.06476
31.3935 18.9943 -0.660862
31.6139 18.7609 -0.641613
31.6408 18.6494 -0.646812
31.7521 18.2573 -0.688171
31.1423 18.8746 -0.711052
32.9373 18.6926 -1.29274
30.5896 18.6186 -1.08016
31.6133 19.6123 -1.63659
31.83 19.815 -1.58549
30.0939 18.3 -1.23895
30.074 18.0529 -1.18435
30.0116 18.184 -1.25315
33.2085 20.7578 -1.68027
31.1399 19.2772 -1.56499
30.9109 19.0171 -1.08565
29.9648 18.1888 -1.43964
30.9117 18.7829 -1.58216
30.1775 18.4941 -1.54769
31.9091 17.9313 -1.20852
32.5802 18.3881 -1.48237
30.9512 19.0572 -1.18002
30.1765 18.3004 -1.05165
30.0429 18.1864 -1.79879
30.3499 18.4344 -1.91322
30.9804 19.1408 -1.49418
30.0806 18.1497 -1.04678
30.6921 18.9483 -1.69842
31.0562 19.2292 -1.43265
31.522 19.5866 -1.69637
30.3027 18.6417 -1.89355
30.7108 18.7311 -1.0073
32.7196 18.5763 -1.45001
32.0574 19.9861 -1.21297
31.9151 19.8858 -1.21381
30.3647 18.6711 -1.74262
32.7185 20.6281 -1.92063
33.2751 20.7538 -1.76583
32.9446 20.5614 -1.92159
33.0673 20.6107 -1.87427
33.2196 20.7595 -1.69691
33.5219 20.6739 -1.73157
32.5161 20.4412 -1.9659
32.91 20.6877 -1.72855
32.6101 20.4887 -1.88351
33.0327 20.5342 -1.74279
32.4508 20.293 -1.98274
32.744 20.5995 -1.65017
32.6593 20.4996 -1.69261
33.0619 20.752 -1.47676
33.6936 20.5511 -1.5388
32.9153 20.6944 -1.47402
33.6386 20.5768 -1.49862
33.1557 20.7749 -1.36787
32.4709 20.3144 -1.75916
33.0139 20.722 -1.38062
32.6237 20.455 -1.589
33.0438 20.382 -1.59966
32.3638 20.2326 -1.7822
32.5163 20.3912 -1.62881
32.6948 20.3752 -1.62153
32.2872 20.1283 -1.84015
32.5138 20.3762 -1.60963
32.7926 20.2707 -1.66938
33.0306 20.3631 -1.56079
32.8628 20.6479 -1.35199
32.9991 20.396 -1.5139
32.4994 20.0314 -1.82603
32.1743 20.0334 -1.84277
32.3129 20.2129 -1.68474
32.5556 20.4333 -1.46151
33.0724 20.5615 -1.28921
30.3651 18.6899 -1.5254
32.4652 20.345 -1.49916
32.1881 20.1251 -1.65441
32.8677 20.2518 -1.48354
32.6692 20.426 -1.36261
32.5879 20.4753 -1.307
31.9286 19.8606 -1.82468
32.4068 20.3301 -1.38951
32.4942 20.385 -1.33626
32.3181 20.24 -1.43725
33.0275 20.4939 -1.15781
33.3608 20.3689 -1.19733
33.0488 20.4592 -1.14983
31.804 19.7766 -1.82385
32.4794 20.3599 -1.29265
32.6842 20.4695 -1.16973
31.8218 19.4905 -1.94664
32.116 20.0809 -1.48204
31.697 19.6702 -1.82721
31.9322 19.9075 -1.60333
32.1086 20.0732 -1.46172
32.384 20.2556 -1.29113
32.466 20.3277 -1.24268
32.0008 19.9848 -1.49598
32.4603 20.2927 -1.19535
32.7029 20.3882 -1.11427
33.8439 19.8475 -1.25885
31.599 19.558 -1.84425
32.5899 20.306 -1.13103
31.6306 19.6931 -1.70267
32.3607 20.2259 -1.24568
32.3573 20.1955 -1.19414
31.8266 19.8139 -1.54218
31.5263 19.62 -1.7377
31.627 19.6546 -1.68528
31.5355 19.6118 -1.7472
31.7358 19.7299 -1.59555
32.8124 20.1861 -1.06445
33.1629 20.0165 -1.11045
31.8687 19.8932 -1.43065
31.9399 19.947 -1.38531
33.758 19.6364 -1.22603
31.4309 19.496 -1.75443
32.6112 20.2047 -1.05352
31.3353 19.4088 -1.82407
32.4822 20.1676 -1.08429
33.3066 19.8459 -1.13186
31.5196 19.5533 -1.67205
31.4998 19.5424 -1.64275
31.5955 19.6082 -1.59161
31.6818 19.6962 -1.49842
31.8403 19.8441 -1.39197
31.2293 19.2977 -1.82873
31.2826 19.44 -1.72182
31.5092 19.518 -1.62283
31.5794 19.6303 -1.55075
31.207 19.3082 -1.79047
33.5768 19.5368 -1.1755
31.285 19.4323 -1.6895
31.4831 19.5099 -1.59377
31.4883 19.5281 -1.59799
31.5761 19.6065 -1.51455
33.0078 19.6869 -1.12297
31.2776 19.3944 -1.67927
31.3777 19.4438 -1.60642
31.4792 19.5027 -1.55099
31.2814 19.3903 -1.65371
33.0603 19.6052 -1.1191
31.1501 19.3293 -1.6949
31.2549 19.3853 -1.64859
33.1325 19.5176 -1.13847
33.4214 19.408 -1.14202
33.2119 19.4197 -1.15796
31.077 19.2 -1.75015
31.3409 19.435 -1.54449
31.6252 19.652 -1.34618
31.0626 19.2056 -1.73779
33.5328 19.2669 -1.15737
31.1439 19.326 -1.66329
31.243 19.3785 -1.58958
31.5375 19.5716 -1.40845
31.9199 19.815 -1.17481
30.9565 19.1154 -1.79454
32.0765 20.0695 -1.70258
31.1419 19.2805 -1.64608
31.432 19.486 -1.44969
31.5254 19.5651 -1.37891
31.2353 19.3577 -1.54179
32.0342 19.7971 -1.08428
30.7705 18.8752 -1.96096
31.0283 19.2331 -1.67799
30.7283 18.973 -1.89191
30.9453 19.0996 -1.73642
31.037 19.2282 -1.66161
31.7955 19.7112 -1.14644
30.7119 18.9795 -1.8511
30.8593 18.9674 -1.84585
33.4094 19.1104 -1.14147
31.1364 19.2761 -1.58513
31.4224 19.467 -1.4011
32.0483 19.7532 -1.07035
30.8324 19.0129 -1.78563
31.0181 19.2023 -1.63598
31.2305 19.3494 -1.50091
32.0664 19.7161 -1.06924
31.1005 19.2527 -1.5444
31.2057 19.3437 -1.49108
31.9055 19.7108 -1.09022
32.0798 19.6851 -1.06541
31.3462 19.3968 -1.24438
31.2954 19.4005 -1.39518
32.0919 19.6479 -1.05247
32.9779 18.6946 -1.41367
30.698 18.9744 -1.81199
30.8118 19 -1.74056
31.588 19.5806 -1.21897
31.9137 19.6906 -1.05925
31.0889 19.2463 -1.49578
31.394 19.4426 -1.29945
33.2185 19.0143 -1.08455
31.1761 19.333 -1.41143
31.285 19.3878 -1.35585
30.697 18.9449 -1.7443
31.6742 19.5937 -1.10671
31.0785 19.2342 -1.45392
31.1647 19.3276 -1.38335
31.5703 19.5426 -1.15665
32.7372 18.455 -1.47909
30.7026 18.8578 -1.77414
30.9991 19.1448 -1.54334
31.3742 19.4081 -1.26125
30.6801 18.891 -1.73984
30.7967 19.003 -1.64606
31.1513 19.3251 -1.35275
31.6782 19.5447 -1.08154
30.8719 19.0746 -1.56599
31.4597 19.5741 -1.46134
31.4462 19.4381 -1.15229
31.6807 19.5155 -1.05901
30.8566 19.0444 -1.53802
30.9512 19.1397 -1.44381
31.2418 19.3325 -1.25031
31.3424 19.3957 -1.19749
32.7128 18.4051 -1.39468
31.137 19.2799 -1.2951
31.4383 19.4119 -1.14635
32.6831 18.3988 -1.33775
30.9364 19.1358 -1.40153
31.2368 19.3112 -1.23619
30.7346 18.96 -1.53954
32.2769 18.4757 -1.36789
32.5373 18.3394 -1.35527
31.342 19.3159 -1.1356
31.2206 19.2799 -1.16548
31.3292 19.2959 -1.09335
31.4344 19.3701 -1.06084
32.5034 18.3393 -1.29963
32.6459 18.3693 -1.24916
30.7075 18.9533 -1.48561
31.1215 19.2127 -1.22298
31.4461 19.3268 -1.05383
32.2501 18.4426 -1.29395
31.0004 19.1332 -1.2502
31.203 19.2805 -1.15608
30.8018 18.9977 -1.39128
30.8981 19.0863 -1.29993
31.1965 19.2489 -1.13736
31.1986 19.2354 -1.103
31.4346 19.2867 -1.0107
31.9824 19.4951 -0.727081
31.3253 19.2324 -1.05176
31.3327 19.1889 -1.03988
31.9852 19.4521 -0.708187
30.8877 19.0373 -1.25232
31.2014 19.1944 -1.0901
30.7778 18.9747 -1.30297
31.2035 19.1899 -1.06292
32.4148 18.3017 -1.13878
30.695 18.9256 -1.35305
32.1447 17.9446 -1.4136
30.6628 18.9236 -1.34932
30.9841 19.0791 -1.15662
31.0809 19.1357 -1.09652
32.11 17.9348 -1.38476
30.6556 18.8892 -1.34443
30.7557 18.9468 -1.28512
30.8633 19.0277 -1.19627
30.9805 19.0631 -1.14008
30.6275 18.6041 -1.49388
31.0805 19.1031 -1.08159
32.0946 17.9249 -1.34909
31.5137 19.2523 -0.849766
30.8495 18.9909 -1.19333
32.0838 17.9161 -1.32298
30.8493 18.9853 -1.14791
30.5379 18.8026 -1.34644
30.7475 18.9118 -1.24131
31.0841 19.0411 -1.03919
30.7485 18.9237 -1.20947
31.0515 19.0522 -1.03952
31.7742 17.8251 -1.40791
32.0629 17.8882 -1.26564
30.7414 18.8951 -1.19179
30.9497 18.991 -1.05483
31.7643 17.8253 -1.38853
31.6054 19.2474 -0.727787
31.7284 19.2851 -0.689087
30.6426 18.8406 -1.24327
30.837 18.9703 -1.11421
31.7495 17.8359 -1.36568
32.0673 17.8496 -1.24866
31.5993 19.2354 -0.700966
30.7448 18.884 -1.15384
31.5427 17.9234 -1.37168
31.7331 19.2426 -0.6516
30.6114 18.8445 -1.20468
31.5275 17.9276 -1.34349
31.5989 19.2053 -0.682602
31.7193 19.2334 -0.640064
30.5143 18.7542 -1.28302
30.9516 18.9522 -1.0387
30.5089 18.7914 -1.25977
30.9488 18.9462 -1.01188
30.4961 18.7464 -1.24613
30.7131 18.8737 -1.12025
30.8374 18.8893 -1.05689
30.5003 18.7151 -1.23949
30.6061 18.8264 -1.14993
30.6972 18.8448 -1.09392
30.9478 18.8975 -0.996632
31.5024 17.9129 -1.28596
31.4867 19.1338 -0.70076
31.6069 19.1477 -0.645832
30.1244 17.756 -1.23133
30.5926 18.7905 -1.14539
31.4916 17.9151 -1.2658
31.4673 19.121 -0.674282
30.4921 18.7012 -1.19404
30.8183 18.8349 -1.01604
31.3669 19.0352 -0.698799
31.5011 19.0383 -0.655132
30.8436 18.8065 -1.00617
31.129 18.3435 -1.10416
30.3838 18.0333 -1.00024
31.0939 18.3903 -1.0563
31.3364 18.9929 -0.695087
30.4849 18.6105 -1.17443
30.5885 18.7066 -1.08722
31.2606 18.9459 -0.727917
31.3769 18.9458 -0.681358
30.4657 18.6585 -1.13689
31.0587 18.4492 -1.01437
30.5617 18.705 -1.05058
30.687 18.6969 -0.998085
30.8926 18.5136 -1.03022
31.1138 18.2891 -1.04881
31.2488 18.909 -0.689106
31.1457 18.85 -0.741562
31.3929 18.8913 -0.658272
30.5931 18.6483 -1.03578
30.9073 18.4304 -1.02504
30.9145 18.3669 -1.01302
31.2046 17.9672 -1.07894
31.0127 18.7906 -0.784184
31.1153 18.8489 -0.717781
31.2374 18.834 -0.672226
31.0039 18.7843 -0.748199
30.9059 18.7015 -0.83186
30.7773 18.6855 -0.872036
30.9002 18.7397 -0.793358
30.7953 18.6776 -0.845078
31.5521 18.4064 -0.664913
30.8788 18.7012 -0.779926
30.9889 18.6945 -0.736511
31.6206 18.245 -0.688549
30.5373 18.4898 -0.988335
30.7942 18.6521 -0.840691
30.6469 18.5931 -0.897499
30.7678 18.6274 -0.830452
30.9943 18.6561 -0.716484
30.8833 18.6288 -0.756992
30.645 18.5448 -0.887302
30.7939 18.5876 -0.796021
31.2465 18.3002 -0.707542
31.2948 18.2121 -0.715012
30.8204 17.8014 -0.946514
30.686 17.749 -1.00682
30.8441 18.8469 -1.00912
30.3369 18.6557 -1.8947
30.6411 18.9015 -1.88415
32.022 17.8778 -1.29649
30.5249 18.4412 -0.951111
