-13.5911 -18.9268 -2.01748
-15.7033 -18.8634 -2.79823
-14.6136 -18.2096 -1.91948
-15.3378 -18.767 -1.84297
-12.9131 -18.3023 -2.08206
-15.0307 -18.5456 -1.57303
-14.2015 -17.8511 -1.89426
-15.6551 -18.9169 -2.04742
-15.4712 -19.2375 -1.54282
-14.5997 -18.0654 -2.00339
-16.0387 -19.078 -2.81449
-15.7219 -19.0595 -2.34563
-13.8808 -17.3434 -2.42425
-14.1366 -17.662 -2.09562
-13.7623 -17.2613 -2.53934
-14.0691 -17.5892 -2.25869
-15.9811 -19.8427 -2.33078
-15.6533 -19.0714 -2.39002
-15.2594 -18.5472 -2.24332
-14.2672 -17.7458 -2.39419
-14.648 -18.5038 -1.46276
-14.4353 -18.3981 -1.53439
-13.6367 -17.5501 -1.99096
-15.2474 -18.5591 -2.13654
-15.0574 -18.5528 -1.79593
-14.0593 -17.7093 -1.99282
-14.0459 -19.354 -1.5498
-14.1691 -17.7437 -2.04867
-15.6006 -18.8159 -2.39414
-14.306 -18.6089 -1.5082
-14.4916 -18.1248 -1.93809
-14.2499 -17.7598 -2.1436
-15.0358 -19.6283 -1.52404
-14.3432 -17.8489 -2.09712
-15.5607 -18.8044 -2.14668
-15.7026 -18.8779 -2.26143
-15.5159 -18.8335 -2.63751
-13.5928 -18.0026 -1.97191
-13.9072 -17.4522 -2.50576
-14.2967 -18.7939 -1.50187
-15.5707 -20.2793 -2.26075
-14.6392 -18.4509 -1.49726
-13.9646 -17.5171 -2.2312
-14.0151 -17.7081 -1.94011
-15.1981 -19.437 -1.51236
-15.0676 -18.3887 -2.14112
-16.043 -19.1037 -2.78486
-14.0968 -17.8131 -2.63951
-12.9393 -17.456 -2.54334
-14.0121 -17.6528 -1.99709
-14.8492 -18.2922 -1.99448
-15.4668 -18.9634 -1.80796
-13.1669 -18.3606 -2.03745
-14.0412 -18.9257 -1.54105
-15.3604 -18.6479 -2.14486
-14.1758 -17.8932 -1.79684
-13.5778 -17.7704 -1.97316
-14.0178 -17.845 -2.46036
-13.7263 -17.3629 -2.16972
-15.9631 -19.3082 -1.94149
-15.3436 -18.675 -2.00706
-15.2913 -19.5473 -1.53918
-15.048 -19.6558 -2.14392
-14.3659 -17.8393 -2.18586
-13.9763 -17.4941 -2.79951
-12.9568 -17.7197 -2.13906
-13.9052 -17.3283 -2.8044
-16.154 -19.3047 -2.39847
-14.2889 -17.7697 -2.24163
-12.8661 -17.8017 -2.13586
-14.502 -17.9224 -2.29174
-15.8401 -19.1985 -1.84789
-13.6503 -17.2627 -2.44094
-14.5719 -17.9844 -2.44187
-12.9931 -17.6841 -2.10968
-13.1319 -17.5786 -2.12127
-14.1661 -19.5699 -2.01048
-15.6987 -20.1835 -2.50509
-15.0462 -19.5765 -1.53769
-14.7618 -18.1306 -2.50094
-14.0256 -18.3131 -1.98291
-14.26 -17.908 -1.76379
-14.13 -17.7724 -1.94953
-14.6034 -18.7381 -1.4822
-14.4069 -19.7431 -2.25259
-15.5757 -19.0897 -1.70073
-15.2587 -18.5959 -1.99292
-13.2489 -17.5963 -2.05521
-13.9113 -17.5506 -2.32603
-13.5568 -17.2669 -2.7645
-15.9089 -19.0364 -2.82973
-15.756 -18.9462 -2.64719
-15.1217 -18.4436 -2.14555
-15.5317 -19.1674 -1.51204
-12.9218 -17.7463 -2.14414
-16.0069 -19.7996 -2.60427
-15.0369 -18.4665 -1.91164
-16.0755 -19.3685 -2.07788
-15.0787 -18.6093 -1.85082
-15.9945 -19.0938 -2.74229
-16.0517 -19.7563 -2.49364
-14.9438 -19.6081 -1.51936
-15.387 -19.3624 -1.53448
-15.9556 -19.0644 -2.89497
-15.8013 -19.3493 -1.66102
-12.9351 -17.5914 -2.18637
-16.0893 -19.2237 -2.40929
-15.4537 -19.2423 -1.51437
-15.0435 -18.4095 -1.99115
-15.1499 -18.4738 -2.158
-13.3508 -18.1486 -2.00928
-15.1473 -18.4508 -2.49593
-14.6597 -18.6711 -1.45607
-15.7766 -18.9827 -2.39407
-14.0729 -19.1674 -1.53194
-16.1146 -19.2992 -2.2451
-14.778 -19.1055 -1.44629
-15.9026 -19.3611 -1.75343
-13.999 -17.5602 -2.35025
-15.9143 -19.0529 -2.63781
-13.2051 -17.6635 -2.04837
-15.9917 -19.284 -2.53887
-15.7371 -19.2555 -2.38592
-14.4585 -18.2723 -1.568
-15.1687 -18.4695 -2.64956
-15.9715 -19.6046 -1.99459
-13.4056 -17.3558 -2.23124
-13.7936 -17.4731 -2.05778
-14.205 -17.7547 -2.04719
-15.9721 -19.1257 -2.60134
-15.4484 -18.9623 -2.50542
-15.9471 -19.0651 -2.74524
-13.5884 -17.2183 -2.62951
-15.2623 -18.5465 -2.44725
-14.4406 -19.0509 -1.50217
-14.5978 -18.0034 -2.68481
-14.1002 -17.6114 -2.791
-15.059 -18.8446 -1.48
-12.8591 -18.4562 -2.07333
-14.1901 -17.6885 -2.32767
-14.5428 -17.9588 -2.54491
-15.0668 -18.8543 -1.45621
-14.6604 -18.0199 -2.55452
-15.037 -18.5749 -1.67284
-15.0261 -18.5585 -1.70184
-14.7176 -18.0983 -2.60434
-12.8811 -18.3827 -2.07359
-14.2223 -17.7365 -2.39774
-15.5051 -18.8298 -2.65531
-15.1637 -19.1379 -1.47588
-14.4759 -17.9439 -2.70265
-15.2462 -18.528 -2.30125
-16.1613 -19.4431 -2.43018
-14.2948 -17.8504 -2.0049
-14.4557 -17.8188 -1.86284
-15.649 -18.8273 -2.72166
-13.9082 -17.654 -1.93883
-15.0975 -19.4671 -1.46519
-14.9982 -18.5904 -1.73311
-12.9742 -17.7233 -2.10936
-14.7076 -18.8544 -1.47815
-14.8926 -18.2152 -2.56461
-16.0386 -19.5833 -2.17198
-14.9632 -18.9577 -1.43637
-15.9643 -19.0971 -2.68653
-14.5204 -17.9539 -2.54993
-13.8698 -17.4023 -2.45127
-15.6389 -18.8458 -2.29012
-13.9065 -17.4857 -2.18324
-13.2327 -17.4344 -2.18109
-15.2001 -18.5598 -1.99776
-14.6087 -18.1449 -1.95139
-14.9436 -19.48 -1.48381
-14.2037 -19.5506 -1.94386
-15.9145 -19.1096 -2.10102
-15.6994 -20.1391 -2.27778
-15.7062 -19.1026 -1.84912
-13.5809 -18.9316 -1.77105
-13.2658 -17.2166 -2.59592
-15.4868 -18.9032 -2.55678
-13.8862 -17.4072 -2.58346
-15.9938 -19.1378 -2.57894
-14.4313 -18.953 -1.48839
-13.8067 -17.499 -2.30659
-14.4222 -18.3797 -1.56934
-13.2551 -17.252 -2.54301
-15.9699 -19.4898 -1.88337
-15.4528 -18.7189 -2.18866
-15.6644 -19.1366 -2.39841
-14.7561 -18.5104 -1.50606
-15.7831 -19.1554 -2.36318
-13.4277 -17.9069 -1.98096
-14.4142 -17.9566 -2.77372
-15.8288 -19.3376 -1.73266
-13.8694 -17.447 -2.40908
-13.2527 -17.23 -2.37692
-14.0634 -17.5999 -2.83914
-13.6718 -17.9362 -1.94226
-14.0493 -18.8714 -1.53285
-13.307 -17.3302 -2.16905
-14.9173 -18.5544 -1.63691
-14.0573 -18.3651 -1.65177
-15.7093 -18.8942 -2.74504
-14.7134 -18.0892 -2.39173
-12.9578 -17.7602 -2.10665
-14.993 -19.4201 -1.47988
-15.5206 -19.435 -1.51555
-13.7275 -17.8773 -1.94513
-14.8099 -18.1996 -2.09481
-14.9798 -18.9863 -1.44124
-13.851 -17.3658 -2.39027
-14.2385 -17.8686 -1.85606
-14.1277 -17.738 -2.0268
-13.0262 -17.9685 -2.03637
-15.1676 -18.4605 -2.34483
-13.2567 -18.926 -1.94733
-15.7424 -19.9658 -1.90117
-15.5915 -18.8582 -2.094
-14.9127 -19.9776 -1.58208
-15.7668 -18.9269 -2.60071
-14.6875 -18.9084 -1.49051
-14.0509 -17.66 -2.05141
-14.2968 -18.0162 -1.69178
-15.5193 -18.7396 -2.43312
-15.458 -18.8907 -1.84878
-15.3991 -19.4765 -1.51515
-15.2002 -18.6641 -1.9043
-13.8407 -19.305 -2.29434
-14.8259 -18.366 -1.91528
-15.2978 -18.7923 -1.74871
-16.0473 -19.1792 -2.2656
-15.4052 -18.8956 -1.87808
-14.5356 -19.4565 -1.48883
-15.1554 -19.2058 -1.49129
-14.1222 -17.7483 -2.6253
-15.8089 -18.9696 -2.79908
-15.6046 -18.8878 -2.05124
-14.5653 -19.0032 -1.45031
-13.5434 -17.211 -2.44817
-15.4167 -19.826 -1.5596
-14.4005 -18.5085 -1.51099
-15.4412 -19.3058 -1.50275
-15.8934 -19.0641 -2.19822
-13.0759 -18.7879 -2.03864
-15.165 -19.1966 -1.46254
-14.5499 -17.971 -2.25494
-15.5588 -18.8142 -2.0984
-15.9903 -19.4455 -2.04469
-14.5124 -17.9264 -2.58797
-15.3107 -19.2543 -1.46678
-16.1644 -19.4553 -2.34501
-15.8105 -19.0094 -2.31782
-13.6227 -17.3107 -2.50005
-15.8027 -19.9535 -1.87642
-15.6459 -20.2054 -2.26723
-15.7328 -18.9194 -2.17373
-12.7685 -18.374 -2.12244
-14.8607 -18.185 -2.01236
-15.2498 -19.5194 -1.49065
-15.0439 -19.6223 -2.16437
-14.9555 -18.7557 -1.45142
-15.1033 -19.2902 -1.46717
-15.1859 -18.4751 -2.20014
-13.0065 -18.2112 -2.05785
-15.5826 -19.0907 -1.74503
-14.3291 -19.6783 -2.08624
-15.1511 -19.6925 -1.52603
-13.9844 -17.5055 -2.84491
-14.5776 -19.295 -1.49062
-13.4526 -17.662 -1.99247
-14.4227 -19.6099 -1.51353
-15.2064 -18.7608 -1.84722
-14.0406 -17.6535 -1.98891
-14.4227 -17.8119 -1.89803
-14.479 -17.8322 -1.97371
-15.7014 -18.9578 -2.39328
-15.9226 -19.1447 -2.08809
-15.6637 -18.8227 -2.68789
-13.9835 -17.5156 -2.76041
-14.037 -17.5771 -2.39346
-15.5646 -19.1998 -1.54031
-15.545 -19.1628 -1.546
-16.1454 -19.5172 -2.26808
-14.9609 -18.3057 -2.14382
-14.8521 -18.6021 -1.49591
-15.7386 -19.3169 -1.6176
-12.661 -17.8 -2.59933
-13.1229 -17.4339 -2.24303
-16.032 -19.6549 -2.11795
-13.4231 -17.3937 -2.15729
-13.723 -17.3437 -2.19569
-14.8354 -18.1714 -2.22635
-15.5435 -18.7555 -2.43888
-14.8265 -18.9746 -1.48
-13.2683 -17.2683 -2.25037
-14.5017 -18.3975 -1.49372
-13.1024 -17.7044 -2.07853
-15.9608 -19.1998 -2.0434
-14.983 -18.3105 -2.37563
-15.4656 -18.7471 -2.13909
-13.7248 -17.2754 -2.55277
-15.7814 -19.2018 -2.35771
-14.1919 -19.626 -1.98093
-15.5157 -19.0424 -1.68405
-15.3865 -18.64 -2.67809
-15.7941 -19.969 -1.86707
-15.0632 -19.2814 -1.45763
-14.0465 -17.6902 -2.2999
-15.6709 -18.9509 -1.99096
-13.1838 -17.2447 -2.49105
-15.8664 -19.348 -1.7833
-15.6844 -18.9849 -2.73151
-15.1524 -18.5457 -1.94289
-14.449 -17.9005 -2.24248
-14.2071 -19.444 -2.17269
-15.0945 -18.5454 -1.85506
-13.4504 -17.9934 -1.94371
-15.4939 -18.7094 -2.3471
-14.6036 -18.8632 -1.45771
-13.6364 -17.2495 -2.53113
-15.8099 -18.999 -2.55281
-12.8721 -17.5177 -2.7869
-15.9488 -19.159 -2.08976
-14.0772 -18.78 -1.52605
-15.6459 -18.8354 -2.68092
-14.4383 -19.2059 -1.49917
-15.1102 -19.4463 -1.47417
-14.5158 -17.9058 -1.9409
-14.5151 -17.93 -2.25736
-16.1563 -19.5199 -2.59285
-15.1543 -18.9402 -1.48248
-14.0672 -17.6457 -2.49891
-14.8397 -19.1908 -1.46688
-16.1815 -19.3802 -2.41327
-15.9734 -19.1917 -2.40113
-14.8474 -18.1799 -2.67364
-16.0963 -19.266 -2.25112
-13.873 -17.3841 -2.77677
-12.866 -17.577 -2.24406
-13.4019 -17.9523 -1.9635
-13.0265 -17.9538 -2.07888
-13.3366 -18.3873 -1.97149
-15.3611 -18.6189 -2.44696
-13.0838 -18.1777 -2.05063
-15.018 -19.2721 -1.49516
-13.6059 -17.7475 -1.94725
-15.5849 -20.2443 -2.29642
-14.6449 -19.687 -1.55783
-13.216 -17.3548 -2.28035
-14.1925 -17.7766 -1.99649
-15.5252 -20.3696 -2.60015
-14.1254 -19.5264 -1.91433
-13.8045 -17.2735 -2.74193
-14.4016 -18.0388 -1.83286
-14.0063 -17.5526 -2.39215
-15.5913 -19.3381 -1.54502
-14.624 -18.0326 -2.24621
-13.1886 -17.4229 -2.28566
-15.9368 -19.1611 -2.05857
-15.9356 -19.8606 -2.26949
-14.6331 -18.0374 -2.62085
-13.2559 -17.5071 -2.09003
-15.0311 -19.0509 -1.4702
-15.1896 -19.1608 -1.45948
-13.9788 -17.5312 -2.20091
-15.7266 -19.3387 -1.60929
-14.9276 -18.5245 -1.70971
-15.5365 -18.7625 -2.2886
-12.8448 -17.9492 -2.13319
-15.0472 -18.4328 -2.02686
-15.7566 -19.044 -1.98148
-14.7683 -18.184 -2.04324
-13.7642 -17.4461 -2.07613
-15.0471 -18.3683 -2.44906
-15.421 -18.8932 -1.85341
-14.7544 -18.1149 -2.35654
-14.6596 -19.7961 -1.54604
-16.0731 -19.6582 -2.30276
-14.8652 -18.2835 -2.03082
-13.6081 -17.4529 -2.03944
-13.5302 -19.0976 -1.71266
-15.2081 -18.5067 -2.2441
-13.5015 -17.3637 -2.10448
-14.6578 -20.0247 -2.28269
-13.8688 -17.3786 -2.50842
-15.4189 -19.1428 -1.47114
-15.3432 -18.6031 -2.34125
-13.7625 -17.2971 -2.44768
-14.6844 -18.1598 -1.94854
-14.9728 -19.3707 -1.50797
-14.4175 -18.4206 -1.54274
-15.6887 -18.9133 -2.09775
-13.3506 -17.7974 -1.9747
-15.6628 -18.9319 -2.02133
-15.3712 -18.6336 -2.38406
-14.5248 -17.9894 -2.07627
-15.8701 -19.9807 -2.49241
-16.1658 -19.4672 -2.39951
-13.5621 -17.4357 -2.45304
-13.5602 -17.2199 -2.59583
-13.6708 -17.2853 -2.42363
-15.5385 -19.0066 -1.66548
-13.1909 -18.0572 -1.98967
-15.1131 -19.0201 -1.48623
-15.6565 -19.3665 -1.6088
-13.8641 -17.3595 -2.84536
-15.7847 -18.9823 -2.62096
-14.0971 -19.3695 -2.22689
-15.1632 -18.899 -1.54285
-13.9031 -17.5651 -2.00643
-15.0675 -18.3894 -2.39211
-13.2542 -17.5518 -2.06222
-15.533 -18.9712 -1.7592
-15.6657 -19.1604 -1.854
-15.6606 -20.1475 -2.04379
-14.1691 -18.9965 -1.52795
-16.0559 -19.3143 -2.09685
-16.0731 -19.7002 -2.55476
-15.4969 -18.9842 -1.91016
-15.8541 -19.0677 -2.09353
-14.3161 -17.7929 -2.54561
-16.0256 -19.6183 -2.15706
-14.9414 -18.6217 -1.55715
-14.8054 -18.6653 -1.44001
-15.6308 -19.0544 -1.88346
-13.8436 -17.3552 -2.59639
-15.4546 -18.6985 -2.29151
-15.4485 -19.3123 -1.54409
-14.0033 -17.8599 -2.4841
-13.3401 -17.2036 -2.49947
-15.1214 -18.6093 -1.89373
-15.8273 -19.9593 -2.03613
-12.8928 -17.6554 -2.1627
-15.9642 -19.4027 -1.85917
-15.5208 -19.3688 -1.55157
-14.4655 -18.2889 -1.58334
-14.6561 -18.0506 -2.54161
-13.1618 -17.7737 -2.03631
-14.0271 -18.7084 -1.80617
-15.6094 -18.8149 -2.34591
-15.6987 -18.9533 -2.09856
-12.8963 -17.6418 -2.17957
-15.7867 -18.9653 -2.53965
-14.345 -18.6658 -1.50302
-13.7674 -17.2856 -2.57952
-15.6037 -19.1659 -1.6175
-15.0746 -19.7149 -2.01342
-15.8508 -19.0203 -2.50557
-15.5572 -18.9131 -1.90783
-16.1629 -19.4128 -2.348
-14.0769 -17.6191 -2.80586
-15.5102 -18.8574 -2.55554
-14.1923 -17.7808 -2.00106
-14.9311 -18.2746 -2.68651
-15.6262 -19.1822 -1.63929
-14.0446 -17.8693 -2.65794
-14.8563 -18.1992 -2.29366
-13.9311 -17.5146 -2.11035
-16.0842 -19.6371 -2.32165
-15.2226 -18.536 -2.08994
-15.0008 -18.3404 -2.18586
-13.813 -17.3509 -2.44927
-13.8025 -17.4494 -2.33762
-16.0666 -19.3068 -2.59288
-14.336 -19.2548 -2.13879
-14.6298 -18.0401 -2.30294
-13.2605 -17.2289 -2.54403
-13.4861 -17.3974 -2.09007
-14.8288 -18.2517 -2.03391
-13.3909 -18.1008 -2.00468
-14.2594 -17.7561 -2.63861
-14.9144 -18.2727 -2.01302
-12.7041 -18.2553 -2.14995
-14.082 -19.5508 -2.02688
-14.6414 -19.7546 -1.5516
-15.5815 -19.499 -1.56042
-14.3222 -17.7938 -2.45239
-13.5646 -17.2207 -2.39473
-14.3573 -18.5353 -1.53153
-15.3435 -18.5745 -2.5624
-15.355 -18.6622 -2.0392
-13.9868 -19.0905 -1.54129
-15.4866 -18.9092 -1.83657
-15.598 -18.8682 -2.49638
-14.9995 -18.3189 -2.29715
-14.9036 -18.2424 -2.28852
-15.3688 -18.6489 -2.49222
-15.9512 -19.0244 -2.85476
-14.9407 -18.2625 -2.44
-14.8151 -18.1736 -2.68904
-12.8499 -17.9138 -2.13671
-14.2255 -17.7228 -2.64861
-16.0986 -19.2278 -2.48937
-13.3884 -17.221 -2.72348
-13.904 -17.4529 -2.43776
-14.0139 -18.6983 -1.83077
-14.1232 -19.2963 -1.52168
-13.3021 -17.4528 -2.08596
-15.812 -19.1561 -1.89057
-14.3884 -18.1808 -1.58486
-14.9556 -19.6995 -1.5163
-13.5007 -17.206 -2.4931
-15.0685 -19.6648 -2.0984
-15.9569 -19.6572 -1.93812
-15.1346 -18.4246 -2.4479
-15.6014 -18.8598 -2.04839
-16.0279 -19.137 -2.82676
-15.0385 -18.6712 -1.60958
-15.7398 -20.128 -2.67898
-14.2235 -17.7058 -2.40968
-14.4265 -18.0723 -1.76347
-15.9386 -19.3094 -1.85075
-15.2551 -19.0946 -1.46442
-13.9083 -17.6119 -1.95761
-15.8384 -19.0229 -2.16046
-12.8624 -18.3587 -2.09783
-15.5594 -18.7775 -2.50559
-15.742 -20.0956 -2.29203
-15.9915 -19.4567 -1.88625
-15.6763 -18.8487 -2.52036
-14.758 -19.1134 -1.49109
-15.724 -20.0773 -2.30148
-13.5022 -17.7083 -1.9999
-14.1957 -17.9494 -1.74462
-15.1534 -19.514 -1.52066
-14.1994 -17.711 -2.19301
-14.9306 -18.2805 -2.47331
-14.7502 -18.1552 -2.09573
-15.0462 -18.7852 -1.52895
-15.7215 -19.0391 -1.92979
-13.1983 -17.2499 -2.6997
-13.0258 -17.3449 -2.71185
-13.2191 -17.2181 -2.65706
-12.8461 -17.5121 -2.69449
-13.0413 -17.3507 -2.64324
-12.8638 -17.5081 -2.66045
-13.052 -17.3571 -2.61213
-12.8591 -17.5487 -2.64149
-14.4199 -18.8694 -1.46362
-13.0963 -17.3105 -2.54621
-12.8874 -17.5163 -2.59591
-12.6083 -17.8601 -2.69157
-13.1505 -17.2547 -2.45284
-12.9515 -17.3911 -2.49154
-12.6006 -17.9065 -2.68658
-12.6143 -17.8932 -2.66147
-12.7569 -17.6488 -2.45329
-13.191 -17.2567 -2.34055
-12.7759 -17.6309 -2.41885
-13.0148 -17.3929 -2.34309
-13.2138 -17.2585 -2.29362
-13.0482 -17.354 -2.2906
-13.3475 -17.2377 -2.3263
-12.7829 -17.672 -2.38441
-12.848 -17.565 -2.2888
-13.2201 -17.2984 -2.26153
-13.3733 -17.243 -2.25982
-13.3868 -17.2141 -2.23936
-13.1856 -17.4504 -2.28301
-13.3686 -17.3233 -2.24945
-13.2103 -17.4183 -2.23762
-13.0711 -17.4248 -2.20308
-12.529 -18.0745 -2.37544
-13.3867 -17.3067 -2.21191
-13.0743 -17.4462 -2.17982
-13.404 -17.3566 -2.19056
-13.0674 -17.5021 -2.14639
-13.2543 -17.4034 -2.14474
-13.1027 -17.5063 -2.13782
-12.8901 -17.703 -2.14249
-13.2691 -17.3966 -2.11233
-13.0984 -17.5553 -2.13223
-12.8723 -17.7203 -2.15933
-13.1024 -17.5515 -2.11558
-12.8754 -17.7633 -2.13737
-13.4167 -17.3694 -2.1249
-13.2699 -17.4533 -2.10123
-13.0941 -17.6008 -2.10766
-13.0798 -17.6183 -2.11084
-12.8528 -17.8588 -2.13861
-13.4524 -17.3667 -2.08622
-13.0775 -17.7013 -2.08588
-13.4198 -17.484 -2.08689
-12.8186 -18.056 -2.14457
-13.2592 -17.5923 -2.07177
-13.4624 -17.4544 -2.04625
-12.8057 -18.1247 -2.14385
-13.0573 -17.8607 -2.05533
-12.7972 -18.1948 -2.13369
-13.2604 -17.7092 -2.04295
-12.787 -18.2599 -2.12914
-13.0477 -17.9158 -2.05013
-12.7894 -18.2887 -2.11301
-13.2478 -17.8049 -2.03178
-13.0206 -18.0977 -2.04646
-13.2495 -17.8574 -2.01023
-13.2367 -17.9051 -2.00609
-13.2604 -17.9521 -1.99124
-12.9976 -18.2632 -2.05874
-13.2569 -17.9936 -1.99685
-12.9933 -18.3031 -2.05437
-13.2154 -18.0225 -1.99873
-13.2057 -18.0947 -1.99703
-12.9627 -18.4914 -2.05473
-13.2015 -18.3004 -2.006
-13.1006 -18.8012 -2.05736
-13.1241 -17.8634 -2.03133
-14.6181 -18.015 -2.29874
-14.028 -17.5878 -2.6308
-15.2908 -18.6145 -2.0429
-15.2387 -18.5105 -2.49339
-15.9685 -19.5765 -2.0032
-14.8576 -18.8378 -1.43353
-13.4244 -17.5746 -2.01204
-14.522 -18.5461 -1.49834
-15.0296 -19.1646 -1.47588
-14.107 -17.6137 -2.24506
-13.2759 -17.3232 -2.20092
-15.0594 -18.4035 -2.08759
-14.1637 -17.6601 -2.38641
-12.899 -17.5218 -2.24814
-13.1532 -17.394 -2.8156
-13.451 -17.3399 -2.8089
-13.4002 -17.1985 -2.68818
-13.2626 -17.2129 -2.67562
-13.4231 -17.1743 -2.65886
-13.2531 -17.2139 -2.63909
-13.8896 -17.3441 -2.83503
-13.7536 -17.3629 -2.82377
-13.5386 -17.2432 -2.69754
-13.2939 -17.2083 -2.59705
-13.1252 -17.2753 -2.60243
-13.8968 -17.3621 -2.79628
-13.4518 -17.1859 -2.58913
-13.3101 -17.1996 -2.54647
-13.1562 -17.2538 -2.54696
-13.8217 -17.2675 -2.68524
-13.8991 -17.4016 -2.78724
-13.6025 -17.4785 -2.77656
-13.5904 -17.2255 -2.59362
-12.8859 -17.4974 -2.62981
-13.6722 -17.3219 -2.64755
-13.1556 -17.2502 -2.49442
-13.9023 -17.4056 -2.74361
-13.831 -17.2738 -2.65704
-13.8327 -17.3129 -2.63902
-13.7152 -17.2773 -2.60197
-13.3681 -17.1998 -2.4453
-13.1909 -17.2436 -2.43678
-13.6161 -17.2373 -2.49996
-13.5031 -17.2183 -2.44709
-13.2153 -17.2446 -2.40154
-13.9351 -17.4271 -2.6851
-13.3983 -17.2048 -2.39378
-13.2346 -17.236 -2.38419
-13.7545 -17.2679 -2.49553
-13.2479 -17.2394 -2.35272
-13.5147 -17.2307 -2.41225
-13.5148 -17.2417 -2.38181
-13.0721 -17.3288 -2.34709
-13.8504 -17.3999 -2.59333
-13.7649 -17.2732 -2.46669
-13.0783 -17.3325 -2.33156
-13.8619 -17.3925 -2.54485
-13.6593 -17.2661 -2.39783
-13.0868 -17.3303 -2.31524
-12.8005 -17.6013 -2.39195
-13.5429 -17.244 -2.33992
-13.4218 -17.2252 -2.29905
-13.0917 -17.3438 -2.29591
-13.9503 -17.5013 -2.59177
-13.1052 -17.3492 -2.26418
-12.8348 -17.574 -2.34133
-13.9761 -17.4679 -2.55756
-13.5572 -17.2573 -2.29559
-12.8309 -17.5948 -2.33495
-13.9592 -17.5068 -2.54522
-13.8041 -17.325 -2.40845
-13.6742 -17.2933 -2.33651
-13.4628 -17.2493 -2.24179
-13.873 -17.4322 -2.44154
-13.9726 -17.5421 -2.53758
-13.8909 -17.4262 -2.43134
-13.8042 -17.3609 -2.35764
-13.4565 -17.2519 -2.20818
-13.2958 -17.314 -2.20066
-13.9862 -17.5551 -2.49556
-12.9056 -17.5638 -2.20644
-13.8086 -17.4045 -2.34482
-13.7047 -17.3205 -2.25162
-13.5969 -17.3014 -2.19613
-13.3895 -17.41 -2.24757
-13.1151 -17.443 -2.1828
-14.0036 -17.5916 -2.49752
-13.9169 -17.4127 -2.37225
-13.3064 -17.3515 -2.18979
-13.703 -17.3349 -2.24833
-13.2493 -17.4146 -2.18678
-13.9976 -17.5932 -2.44983
-13.4667 -17.3134 -2.15052
-13.9855 -17.6343 -2.47016
-13.7189 -17.3293 -2.21458
-13.3945 -17.5035 -2.19936
-13.2384 -17.537 -2.1887
-13.6121 -17.3204 -2.14809
-13.9073 -17.4715 -2.35149
-13.1242 -17.5187 -2.11644
-13.909 -17.5034 -2.31377
-13.9321 -17.4994 -2.30018
-13.8329 -17.4201 -2.23421
-13.8419 -17.423 -2.19887
-13.6228 -17.3622 -2.10506
-13.4732 -17.3929 -2.09243
-13.3262 -17.4301 -2.06965
-13.2273 -18.593 -1.99319
-13.4884 -17.367 -2.0647
-13.9127 -17.5992 -2.3082
-13.304 -17.5152 -2.06583
-13.8606 -17.7657 -2.36877
-13.757 -17.4103 -2.09845
-13.6599 -17.3635 -2.09839
-13.4913 -17.4161 -2.0486
-12.8065 -17.9544 -2.14242
-13.9409 -17.5537 -2.25829
-13.2868 -17.6074 -2.04803
-13.9637 -17.5076 -2.1951
-13.662 -17.3964 -2.0496
-13.4995 -17.4307 -2.01674
-13.0723 -17.7643 -2.06852
-12.7566 -18.0902 -2.15098
-12.7337 -18.1508 -2.16133
-13.8689 -17.4709 -2.10969
-13.7628 -17.4529 -2.04643
-13.3009 -17.6472 -2.04584
-12.7225 -18.2056 -2.15163
-13.9839 -17.5091 -2.18549
-13.4858 -17.5101 -2.0031
-13.9988 -17.5541 -2.14364
-13.8822 -17.4783 -2.09647
-13.6584 -17.4675 -2.00699
-13.4542 -17.5508 -2.01068
-14.0986 -17.6142 -2.19266
-13.898 -17.5122 -2.0898
-12.666 -18.3504 -2.15819
-13.6488 -17.505 -1.98655
-13.2623 -17.7598 -2.01157
-13.8967 -17.5118 -2.05069
-13.7661 -17.5016 -1.99714
-13.2534 -17.8057 -2.00371
-13.9989 -17.562 -2.09418
-12.9843 -18.0797 -2.05202
-14.105 -17.6403 -2.14409
-13.6396 -17.5587 -1.96521
-12.9496 -18.1674 -2.06759
-13.9081 -17.5527 -2.04279
-14.0076 -17.5944 -2.09172
-13.6348 -17.5955 -1.95786
-14.0116 -17.6056 -2.04779
-13.796 -17.5482 -1.95223
-13.6141 -17.6926 -1.95551
-13.4327 -17.8038 -1.96048
-13.9027 -17.5955 -1.98605
-13.4053 -17.9114 -1.9619
-14.0311 -17.6276 -2.0245
-13.1628 -18.1547 -1.99214
-13.7859 -17.6493 -1.92448
-13.5995 -17.8008 -1.93604
-13.1376 -18.2541 -1.99769
-13.3731 -18.0175 -1.96392
-13.1168 -18.3048 -2.00159
-13.7909 -17.6658 -1.90718
-13.3673 -18.0682 -1.95999
-13.7729 -17.7322 -1.9176
-13.5837 -17.8852 -1.9484
-13.5282 -18.0467 -1.97026
-14.1655 -17.7232 -2.013
-14.0539 -17.7085 -1.94816
-13.0357 -18.5753 -2.01541
-14.1565 -17.7543 -1.99948
-13.7388 -17.9019 -1.91967
-13.2398 -18.4695 -2.01646
-13.5247 -18.1366 -1.93739
-13.538 -18.1246 -1.91589
-14.1755 -17.7978 -1.97444
-14.1576 -17.8014 -1.94404
-13.2348 -18.588 -1.96926
-14.0714 -17.797 -1.88523
-13.1624 -18.7871 -2.01565
-14.0801 -17.7962 -1.8651
-13.3377 -18.8918 -1.98278
-13.3572 -18.8755 -1.9518
-13.3598 -18.9041 -1.93467
-13.3775 -18.883 -1.90935
-14.2554 -17.877 -1.78019
-13.3976 -18.8771 -1.8731
-14.2467 -17.9097 -1.80145
-13.3942 -18.9088 -1.86673
-13.392 -18.9531 -1.85286
-14.2525 -17.9621 -1.74895
-13.3962 -19.0036 -1.82476
-13.4002 -19.0202 -1.8105
-14.2993 -18.0575 -1.65155
-14.0231 -18.6607 -1.75277
-14.3211 -18.1106 -1.64534
-14.0237 -18.7114 -1.73089
-13.6372 -19.1418 -1.66829
-15.753 -18.9535 -2.45194
-13.889 -19.0589 -1.5653
-14.124 -18.7489 -1.53851
-13.8599 -19.1941 -1.58153
-14.3124 -18.5303 -1.53444
-13.8539 -19.2489 -1.57744
-14.1109 -18.797 -1.54081
-14.3081 -18.6548 -1.50114
-15.4638 -18.7346 -2.19804
-15.7219 -18.9086 -2.20136
-15.3694 -19.8697 -1.60017
-14.6782 -18.0601 -2.41638
-13.3333 -17.9099 -2.00822
-15.4317 -19.0956 -1.50845
-14.246 -19.4965 -1.5115
-15.9071 -19.1136 -2.39632
-14.4864 -18.296 -1.57938
-15.9124 -19.204 -1.95111
-14.1059 -17.7678 -2.61865
-15.4834 -19.2606 -1.50622
-15.6628 -19.1617 -2.34778
-13.3613 -17.2289 -2.71899
-13.527 -17.2228 -2.70072
-13.8738 -17.3587 -2.79422
-13.7669 -17.3016 -2.75546
-13.4265 -17.1879 -2.61933
-13.9685 -17.4553 -2.8484
-13.8067 -17.3033 -2.69836
-13.8085 -17.3174 -2.66619
-13.1734 -17.2217 -2.47837
-13.3075 -17.2475 -2.49971
-13.7229 -17.2893 -2.53356
-13.3674 -17.2102 -2.41491
-13.2209 -17.2227 -2.38847
-13.829 -17.3575 -2.56469
-14.0868 -17.6325 -2.78039
-14.0035 -17.5299 -2.70119
-13.8166 -17.4027 -2.55892
-14.0121 -17.5562 -2.69458
-13.2655 -17.2257 -2.30285
-14.0179 -17.567 -2.65271
-13.2827 -17.2217 -2.27451
-13.9301 -17.486 -2.5666
-14.1187 -17.6591 -2.69508
-14.0328 -17.5667 -2.60505
-13.7684 -17.3466 -2.39164
-14.0079 -17.557 -2.59971
-14.1208 -17.6798 -2.66405
-14.1248 -17.6962 -2.64522
-14.0434 -17.6053 -2.59517
-13.7618 -17.3893 -2.37361
-13.6123 -17.2701 -2.24928
-14.0464 -17.6224 -2.55052
-13.7671 -17.399 -2.35514
-13.9531 -17.5043 -2.44927
-14.1386 -17.7152 -2.60936
-14.0509 -17.6408 -2.54488
-13.9568 -17.5581 -2.49471
-13.7498 -17.9358 -2.66611
-14.0555 -17.6186 -2.487
-14.0904 -17.8409 -2.63787
-13.7144 -17.5449 -2.35824
-14.2667 -17.7608 -2.59842
-13.911 -17.502 -2.33557
-14.3706 -17.8402 -2.64882
-14.0885 -17.6205 -2.4388
-14.1579 -17.7421 -2.53515
-13.8147 -17.4228 -2.23835
-14.3996 -17.8551 -2.59459
-14.09 -17.6527 -2.41464
-13.7973 -17.4042 -2.19674
-14.2151 -17.6987 -2.44381
-13.8774 -17.5725 -2.30374
-13.0282 -17.5983 -2.12106
-14.0478 -17.7556 -2.4472
-14.5007 -17.9408 -2.64506
-14.4074 -17.8695 -2.5487
-13.9713 -17.679 -2.34277
-14.5102 -17.9423 -2.60134
-14.2445 -17.7223 -2.38926
-14.1566 -17.6465 -2.29616
-14.0111 -17.6327 -2.28542
-14.6062 -18.0148 -2.65319
-14.4177 -17.8694 -2.51453
-13.4778 -17.4435 -2.01612
-12.9356 -17.8036 -2.1088
-14.245 -17.7205 -2.35335
-13.9671 -17.5182 -2.15089
-13.4624 -17.4856 -2.01159
-14.4332 -17.8728 -2.48233
-14.348 -17.8115 -2.39997
-14.0679 -17.5926 -2.19985
-13.6237 -17.4618 -2.01073
-14.2627 -17.7442 -2.33964
-13.1893 -17.7058 -2.04239
-14.448 -17.8752 -2.44448
-13.9711 -17.5374 -2.12999
-14.5506 -17.9691 -2.49689
-13.4115 -17.6083 -2.00927
-14.3602 -17.819 -2.34826
-13.3977 -17.6565 -1.99731
-14.4561 -17.8967 -2.44272
-14.1573 -17.6579 -2.19941
-14.2629 -17.7522 -2.25163
-14.5568 -17.9646 -2.44573
-13.988 -17.5753 -2.07008
-13.5878 -17.6119 -1.96666
-13.3608 -17.7606 -1.98437
-13.0845 -17.9485 -2.03329
-14.1951 -17.714 -2.15621
-13.5652 -17.6696 -1.96642
-14.6687 -18.0999 -2.50201
-14.5855 -17.9677 -2.39223
-13.5556 -17.7066 -1.95697
-13.327 -17.8489 -1.97797
-14.6043 -18.007 -2.40012
-14.2146 -17.736 -2.1417
-13.3252 -17.8639 -1.96988
-14.6551 -18.1735 -2.50983
-14.1908 -17.7182 -2.0913
-14.1036 -17.6769 -2.0602
-14.3175 -17.8087 -2.14505
-14.1174 -17.706 -2.04249
-13.7543 -17.6369 -1.91811
-13.7227 -17.7029 -1.95174
-14.0127 -17.67 -1.95978
-13.6957 -17.7531 -1.94911
-13.5041 -17.8616 -1.93983
-13.2505 -18.0534 -1.99035
-12.8654 -18.3941 -2.06443
-14.1197 -17.7182 -2.00222
-14.5139 -17.9435 -2.24641
-14.4183 -17.8857 -2.17893
-13.8832 -17.6982 -1.9123
-13.688 -17.8065 -1.92683
-13.1647 -18.2199 -1.98891
-14.2352 -17.7764 -2.04612
-14.1243 -17.7462 -1.97632
-13.8106 -17.8073 -1.94375
-14.0167 -17.7462 -1.9366
-13.3067 -18.2475 -2.0069
-13.1055 -18.3446 -2.00107
-14.6524 -18.0483 -2.2464
-14.5379 -17.9703 -2.18685
-14.4448 -17.9147 -2.14361
-14.3438 -17.8568 -2.05359
-14.2445 -17.8107 -1.99725
-13.3019 -18.286 -2.00613
-14.4466 -17.9166 -2.10318
-13.2743 -18.3483 -2.01194
-13.0166 -18.5188 -2.02903
-13.2572 -18.3918 -2.01242
-13.6048 -18.0574 -1.91238
-13.223 -18.4659 -2.02194
-14.6535 -18.0564 -2.20049
-14.1537 -17.8123 -1.90106
-14.3703 -17.8651 -2.00083
-13.1562 -18.6128 -2.0392
-14.7347 -18.2119 -2.29827
-13.1362 -18.6643 -2.03918
-14.7632 -18.1464 -2.24261
-14.5661 -18.007 -2.09724
-14.6622 -18.0665 -2.14672
-14.362 -17.9117 -1.98203
-14.1601 -17.8386 -1.8758
-13.1063 -18.7408 -2.03491
-14.7643 -18.1441 -2.20222
-14.5848 -18.0199 -2.09585
-14.4772 -17.9721 -2.00873
-14.7983 -18.162 -2.19417
-14.6965 -18.1053 -2.10123
-14.6004 -18.054 -2.04228
-14.4443 -17.8192 -1.89295
-14.7006 -18.1164 -2.05116
-14.5289 -17.9468 -1.89953
-14.1881 -17.9214 -1.76447
-14.7963 -18.1783 -2.10931
-14.7167 -18.1539 -2.04118
-14.6031 -18.0991 -1.99453
-14.8502 -18.213 -2.0994
-14.7101 -18.1589 -2.00311
-14.4161 -18.0088 -1.82394
-13.7507 -19.2682 -2.24297
-13.3042 -18.91 -1.90248
-14.8416 -18.2065 -2.04967
-14.5278 -18.0414 -1.87147
-14.2055 -17.964 -1.70926
-14.4202 -18.0256 -1.8081
-14.4156 -18.0571 -1.79614
-13.3091 -18.9586 -1.86232
-14.864 -18.2568 -2.04686
-14.4329 -18.0458 -1.77326
-14.8522 -18.2555 -1.99727
-14.436 -18.0554 -1.76291
-13.8898 -19.4642 -2.23911
-14.3354 -18.0131 -1.7027
-14.301 -19.1925 -2.23435
-14.7579 -18.2291 -1.91573
-14.3238 -18.0729 -1.68568
-14.8732 -18.2801 -1.95928
-14.7478 -18.2645 -1.90389
-14.1119 -19.3637 -2.19873
-14.3367 -18.0735 -1.6668
-14.884 -18.2753 -1.93688
-14.3316 -19.2061 -2.16505
-14.9012 -18.3169 -1.94905
-14.1276 -19.3926 -2.15509
-14.8897 -18.3021 -1.91746
-14.3561 -18.1454 -1.64297
-13.5134 -19.049 -1.75497
-14.1398 -19.4064 -2.12481
-14.3529 -18.1534 -1.6055
-13.5186 -19.092 -1.73652
-14.1454 -19.4511 -2.09632
-14.4928 -18.2528 -1.5934
-14.4895 -18.277 -1.56455
-14.1652 -19.5989 -2.0014
-14.4881 -18.3155 -1.55068
-14.1843 -19.5697 -1.97467
-13.7345 -19.2131 -1.61144
-14.4933 -18.3355 -1.53178
-14.0581 -18.8062 -1.54812
-14.2186 -19.5587 -1.91196
-14.5031 -18.3517 -1.509
-14.0125 -19.0051 -1.5465
-14.6327 -18.4032 -1.52599
-14.4945 -18.4498 -1.4867
-14.6283 -18.4379 -1.52227
-14.4868 -18.5037 -1.48019
-14.3025 -18.7176 -1.49238
-13.9408 -19.2269 -1.55946
-14.259 -18.7881 -1.49195
-13.9164 -19.3114 -1.56317
-14.4798 -18.5559 -1.47292
-14.2511 -18.8659 -1.49375
-14.6432 -18.4837 -1.47845
-14.465 -18.6444 -1.46637
-14.4379 -18.794 -1.45924
-14.1002 -19.383 -1.52644
-14.3999 -18.9527 -1.46864
-14.9064 -18.6195 -1.54323
-14.6031 -18.7117 -1.45116
-14.609 -18.758 -1.45041
-14.5943 -18.8303 -1.45355
-14.3527 -19.1935 -1.49625
-14.3081 -19.3272 -1.49526
-14.5794 -18.9306 -1.44804
-14.7799 -18.7102 -1.43749
-14.7693 -18.7623 -1.44812
-14.5514 -19.0737 -1.45263
-14.9239 -18.713 -1.45473
-14.5361 -19.1498 -1.45597
-14.5065 -19.275 -1.46939
-14.7439 -18.9438 -1.43901
-14.9285 -18.7539 -1.43652
-14.9053 -18.818 -1.44411
-14.7131 -19.0953 -1.45393
-15.0569 -18.8096 -1.49652
-14.9039 -18.954 -1.44674
-14.6788 -19.2934 -1.46217
-15.0665 -18.809 -1.45509
-14.6604 -19.4381 -1.48881
-14.8957 -19.0831 -1.45268
-15.0557 -18.9106 -1.4526
-14.8611 -19.1357 -1.44423
-14.7965 -19.5141 -1.48257
-14.7815 -19.6568 -1.5037
-14.9997 -19.7492 -2.13687
-13.9367 -17.5931 -2.02891
-15.625 -18.8393 -2.24076
-15.8007 -18.9137 -2.88598
-15.1186 -19.3752 -1.50171
-15.0946 -18.4084 -2.23833
-15.8723 -19.3659 -1.76078
-15.4756 -18.8698 -1.86966
-14.578 -18.3774 -1.58087
-14.0212 -19.5344 -2.15097
-13.5759 -17.3221 -2.551
-14.3636 -19.5277 -1.53367
-14.4423 -18.7106 -1.51038
-15.1824 -19.0408 -1.47882
-13.2793 -17.2908 -2.79802
-13.4935 -17.2458 -2.75289
-13.216 -17.2284 -2.67722
-13.4902 -17.1804 -2.55657
-13.9734 -17.4891 -2.82677
-13.4991 -17.1913 -2.53191
-12.9045 -17.45 -2.65512
-13.8467 -17.3553 -2.64009
-13.3946 -17.1839 -2.43776
-13.8186 -17.4122 -2.60004
-13.7929 -17.3032 -2.4896
-14.1045 -17.6287 -2.76181
-13.4371 -17.2175 -2.33805
-13.5784 -17.2287 -2.36436
-13.6737 -17.2932 -2.41131
-13.5926 -17.2483 -2.33966
-13.6858 -17.2916 -2.38297
-13.4665 -17.2174 -2.29189
-13.6974 -17.304 -2.35107
-14.1651 -17.8095 -2.7768
-13.0038 -17.4114 -2.26611
-13.272 -17.3275 -2.22093
-12.9934 -17.4512 -2.24154
-13.7285 -17.3358 -2.27837
-14.1136 -17.7022 -2.59425
-13.7536 -17.3578 -2.2441
-13.9992 -17.5612 -2.4495
-13.2189 -17.4249 -2.20517
-14.3562 -17.8217 -2.65649
-13.3413 -17.4743 -2.2389
-13.7601 -17.3738 -2.1953
-13.648 -17.3266 -2.15817
-12.9632 -17.541 -2.19591
-14.4685 -17.9156 -2.69959
-13.5195 -17.324 -2.10658
-14.3756 -17.843 -2.61318
-13.8595 -17.4417 -2.23541
-13.7731 -17.396 -2.15335
-14.0628 -17.7197 -2.44375
-14.4832 -18.1456 -2.80598
-14.313 -17.7894 -2.49754
-13.9712 -17.8542 -2.50721
-14.4804 -17.9329 -2.63255
-13.199 -17.5587 -2.10455
-14.0623 -17.5866 -2.27338
-13.8877 -17.4693 -2.14917
-13.5409 -17.5989 -2.43701
-13.1771 -17.6055 -2.09184
-13.9117 -17.5001 -2.14151
-14.7005 -18.0782 -2.69412
-14.6121 -18.0154 -2.59655
-13.4598 -17.494 -2.03267
-14.7044 -18.0987 -2.68807
-14.7166 -18.1046 -2.65049
-14.5237 -17.9677 -2.50936
-15.634 -18.8517 -1.99144
-13.8067 -17.4974 -2.04038
-13.0974 -17.7473 -2.07306
-14.8115 -18.1728 -2.66198
-14.8222 -18.1899 -2.64711
-14.7479 -18.1155 -2.55106
-13.3127 -17.7534 -2.01752
-14.8474 -18.2021 -2.64305
-14.8544 -18.2063 -2.60103
-14.3141 -17.7953 -2.24799
-13.2884 -17.7986 -2.01197
-14.0184 -17.646 -2.03163
-14.956 -18.2999 -2.64176
-14.119 -17.6952 -2.0778
-14.9402 -18.2765 -2.65462
-13.7517 -17.6488 -1.9598
-13.5119 -17.7591 -1.97322
-15.0429 -18.3699 -2.68408
-14.9654 -18.299 -2.60156
-14.7554 -18.1095 -2.44755
-14.2463 -17.7689 -2.09537
-13.1569 -18.0049 -2.019
-14.7801 -18.1355 -2.45518
-15.0682 -18.3771 -2.64881
-14.8747 -18.2245 -2.5078
-13.0861 -18.1105 -2.02779
-14.9752 -18.3054 -2.55644
-14.7124 -18.0947 -2.34701
-13.9147 -17.6785 -1.91912
-13.6514 -17.8149 -1.95855
-14.8765 -18.245 -2.50154
-13.5679 -17.9474 -1.98665
-13.3784 -17.9877 -1.97451
-15.0708 -18.3895 -2.60145
-14.9927 -18.3157 -2.54634
-14.9055 -18.2514 -2.49347
-13.7992 -17.8474 -1.9666
-14.603 -18.0092 -2.24348
-14.1598 -17.7729 -1.96004
-14.9179 -18.2567 -2.39941
-15.2985 -18.5621 -2.68725
-13.2405 -18.2156 -1.98326
-14.7437 -18.1158 -2.24961
-15.0107 -18.3275 -2.45895
-14.8329 -18.1753 -2.31004
-14.2637 -17.8539 -1.95572
-15.2999 -18.5623 -2.64084
-13.159 -18.338 -1.99958
-15.1143 -18.4209 -2.50107
-14.397 -17.845 -1.98372
-14.4142 -17.8265 -1.94212
-15.2146 -18.4958 -2.54416
-15.0282 -18.3388 -2.41085
-14.9458 -18.2717 -2.34592
-14.4368 -17.8145 -1.93162
-14.259 -17.8924 -1.93437
-13.3287 -18.3818 -1.98905
-15.1239 -18.4388 -2.44995
-15.0502 -18.3644 -2.39593
-14.4733 -17.9962 -2.00122
-14.2692 -17.9097 -1.90242
-14.9509 -18.2762 -2.29987
-14.6484 -18.068 -2.09725
-14.2871 -17.8952 -1.88119
-13.2357 -18.5272 -2.01075
-15.153 -18.4591 -2.45011
-15.0502 -18.3632 -2.34731
-14.9613 -18.2922 -2.29415
-14.8611 -18.2059 -2.19704
-15.3559 -18.6052 -2.54361
-15.1583 -18.459 -2.39204
-14.5466 -17.9131 -1.90255
-14.2006 -17.915 -1.80414
-14.8813 -18.2257 -2.17332
-15.3514 -18.6115 -2.4988
-14.9608 -18.2927 -2.19366
-14.9008 -18.2597 -2.14184
-14.2052 -17.9452 -1.77894
-15.342 -18.6831 -2.52498
-15.0764 -18.3852 -2.27915
-14.9885 -18.3235 -2.19775
-15.2607 -18.5297 -2.40219
-15.08 -18.3926 -2.26218
-14.8043 -18.2087 -2.0423
-15.151 -18.4512 -2.29423
-14.8977 -18.2544 -2.09456
-15.1919 -18.4701 -2.28915
-14.1634 -18.0022 -1.72898
-15.1054 -18.419 -2.1944
-13.3097 -18.8377 -1.93451
-14.816 -18.2473 -1.98828
-14.9036 -18.3106 -2.04958
-13.2597 -18.9391 -1.93148
-15.2955 -18.5719 -2.30159
-14.4207 -18.0959 -1.75735
-15.3116 -18.5887 -2.28676
-13.8334 -19.3523 -2.27565
-13.8325 -19.3709 -2.26456
-15.3162 -18.5959 -2.2474
-15.0216 -18.3872 -2.04547
-14.9451 -18.3499 -1.98945
-14.3246 -18.0869 -1.67102
-14.8386 -18.3161 -1.94582
-15.3583 -18.6117 -2.24676
-15.2374 -18.5271 -2.1593
-13.9914 -19.4254 -2.27694
-14.941 -18.3585 -1.95138
-14.825 -18.3587 -1.93585
-13.9986 -19.4473 -2.24917
-14.3197 -18.1493 -1.6341
-14.95 -18.403 -1.94512
-14.2395 -19.2969 -2.22271
-15.3478 -18.6407 -2.1884
-15.2503 -18.5692 -2.09302
-14.2417 -19.349 -2.18711
-13.4943 -19.0282 -1.79069
-14.0341 -18.6726 -1.75161
-13.4917 -19.0506 -1.78373
-15.1564 -18.5099 -1.99805
-14.2451 -19.3875 -2.15759
-14.0036 -19.5498 -2.17451
-15.2645 -18.5978 -2.04303
-15.0642 -18.4929 -1.94524
-14.4627 -18.2552 -1.59866
-15.362 -18.6564 -2.09786
-14.9647 -18.4448 -1.85245
-15.1697 -18.546 -1.98595
-15.048 -18.4987 -1.89188
-15.1835 -18.566 -1.95434
-15.093 -18.517 -1.89447
-15.2928 -18.6146 -2.00134
-14.9853 -18.4673 -1.82672
-14.4669 -18.3053 -1.55159
-14.0683 -19.5486 -2.05367
-14.5576 -18.3858 -1.59492
-15.3081 -18.6601 -1.95715
-15.1932 -18.616 -1.90397
-14.096 -19.562 -1.99409
-15.1083 -18.5931 -1.84463
-14.5731 -18.3796 -1.55913
-15.3965 -18.7113 -1.99625
-14.5779 -18.3985 -1.54875
-14.1588 -18.7036 -1.5444
-15.1716 -18.7232 -1.91406
-15.0093 -18.5529 -1.75057
-14.7274 -19.9442 -2.34018
-14.1103 -19.5908 -1.95036
-15.4046 -18.7476 -1.98976
-14.3868 -18.5493 -1.50777
-14.0881 -18.8367 -1.54282
-15.3122 -18.7235 -1.90778
-14.7466 -19.9527 -2.2967
-14.9147 -18.5393 -1.68612
-14.5983 -18.4474 -1.50257
-14.3716 -18.5938 -1.50455
-14.5873 -19.9665 -2.24557
-14.7015 -18.5049 -1.53846
-14.5592 -18.5078 -1.49614
-15.4548 -18.8026 -1.93816
-15.5597 -18.8431 -1.98873
-15.0209 -19.6649 -2.19765
-14.7115 -18.5177 -1.51328
-14.5446 -18.5545 -1.49139
-14.7811 -19.953 -2.22544
-14.9336 -18.562 -1.60161
-14.5023 -18.6978 -1.48574
-14.2451 -18.9149 -1.51073
-14.9491 -18.6068 -1.59634
-15.0472 -18.6538 -1.64398
-15.5688 -18.9021 -1.94027
-14.6614 -18.6505 -1.48434
-14.465 -18.8124 -1.48048
-14.6808 -18.653 -1.4711
-15.3031 -19.3853 -2.03918
-14.8149 -18.648 -1.49418
-14.4142 -18.9468 -1.48658
-14.0517 -19.4014 -1.55345
-14.9584 -18.6573 -1.54544
-14.6648 -18.7533 -1.45159
-14.4006 -18.9918 -1.48267
-14.6416 -18.7877 -1.4635
-15.3261 -19.3939 -1.98848
-14.9605 -18.7049 -1.49928
-14.8077 -18.6979 -1.47276
-14.328 -19.1721 -1.49873
-14.6714 -20.0758 -2.03141
-14.8085 -18.704 -1.45065
-14.5946 -18.9209 -1.47079
-15.3553 -19.3581 -1.93835
-14.693 -20.0555 -1.99799
-14.7908 -18.7491 -1.46229
-14.582 -18.9661 -1.4673
-14.197 -19.4717 -1.54332
-14.7964 -18.7975 -1.45827
-14.5472 -19.0602 -1.48133
-14.7156 -20.031 -1.9646
-14.9491 -18.7561 -1.4748
-14.7796 -18.8531 -1.45928
-14.513 -19.1259 -1.48444
-15.375 -19.3427 -1.90219
-14.737 -20.0113 -1.93145
-14.4946 -19.2096 -1.4832
-14.7609 -19.0016 -1.45613
-14.4561 -19.3076 -1.4861
-14.7558 -20.0077 -1.89697
-14.7052 -19.0549 -1.45664
-14.9099 -18.8666 -1.44712
-14.8885 -20.0928 -1.95796
-14.6727 -19.1918 -1.47315
-14.907 -18.9932 -1.44667
-15.1912 -18.9045 -1.50652
-14.5303 -19.5834 -1.52268
-15.3056 -18.9953 -1.54655
-14.816 -19.271 -1.47164
-15.313 -18.9706 -1.53193
-14.7991 -19.3648 -1.49133
-15.5425 -19.054 -1.6445
-14.7377 -19.5095 -1.49917
-15.3078 -19.0114 -1.503
-15.4221 -19.0804 -1.58199
-15.4349 -19.0726 -1.54781
-15.309 -19.0447 -1.48559
-14.9448 -19.4173 -1.49807
-15.5457 -19.1064 -1.592
-15.444 -19.1047 -1.53323
-15.5589 -19.1537 -1.58713
-15.3088 -19.1466 -1.48929
-15.3108 -19.2128 -1.50338
-15.4515 -19.1417 -1.50838
-15.702 -19.2505 -1.64545
-15.244 -19.4478 -1.50898
-15.6996 -19.2525 -1.60896
-15.4126 -19.287 -1.50462
-15.7001 -19.3025 -1.60488
-15.5655 -19.3102 -1.54716
-15.403 -19.4253 -1.51805
-15.5551 -19.3551 -1.54423
-15.3836 -19.5204 -1.52715
-16.052 -19.2119 -2.54219
-15.5596 -19.4037 -1.54213
-15.3288 -19.7964 -1.55125
-16.1155 -19.2372 -2.43157
-14.836 -18.9239 -1.46744
-15.7625 -20.0467 -2.0646
-14.8474 -18.5736 -1.53712
-14.3519 -17.845 -1.94045
-15.6842 -18.8607 -2.49431
-14.9873 -18.603 -1.59851
-14.1968 -17.7698 -2.75043
-14.9517 -18.428 -1.82323
-13.7927 -17.2998 -2.78663
-13.3107 -17.2331 -2.73352
-13.8873 -17.3835 -2.8348
-13.8805 -17.3961 -2.82264
-13.9857 -17.4677 -2.85693
-13.8106 -17.3321 -2.69533
-13.8315 -17.3479 -2.68545
-13.7347 -17.2707 -2.64065
-14.0886 -17.5912 -2.84149
-13.7791 -17.2939 -2.55468
-13.7858 -17.3051 -2.53374
-13.5621 -17.3438 -2.54724
-13.7972 -17.3349 -2.48761
-13.4183 -17.2332 -2.34622
-13.5494 -17.4334 -2.4724
-14.1373 -17.6702 -2.68181
-13.8227 -17.5075 -2.53153
-13.8028 -17.5341 -2.53372
-13.616 -17.2855 -2.28807
-13.9184 -17.4903 -2.39545
-13.8358 -17.4149 -2.35273
-13.3606 -17.369 -2.27641
-13.3672 -17.3828 -2.25405
-14.0929 -17.6559 -2.49182
-14.2048 -17.6954 -2.54713
-13.9547 -17.5168 -2.39545
-13.7842 -17.4904 -2.34812
-13.9342 -17.5179 -2.35115
-13.6603 -17.3371 -2.17879
-13.5121 -17.3201 -2.14176
-13.1521 -17.4263 -2.21663
-14.2915 -17.7766 -2.59347
-13.7823 -17.3807 -2.21564
-13.5402 -17.3008 -2.1273
-13.1412 -17.4459 -2.20902
-14.3966 -17.8531 -2.63497
-13.9318 -17.5391 -2.34143
-13.2121 -17.4084 -2.16512
-14.0943 -17.6938 -2.45285
-14.489 -17.9207 -2.68548
-14.2494 -17.7196 -2.4491
-14.0027 -17.6468 -2.38489
-13.8882 -17.5902 -2.33138
-13.8904 -17.4593 -2.23217
-13.1904 -17.4466 -2.15072
-14.5704 -18.005 -2.72897
-13.8984 -17.465 -2.20343
-13.1705 -17.473 -2.1464
-14.0387 -17.6313 -2.34586
-13.6839 -17.3913 -2.09328
-14.3415 -17.8087 -2.49344
-14.185 -17.6716 -2.34467
-13.8144 -17.4324 -2.12064
-13.46 -17.4475 -2.07388
-13.4844 -17.4413 -2.05049
-13.0673 -17.6148 -2.13229
-14.4526 -17.8969 -2.49084
-14.2025 -17.7034 -2.29122
-12.9917 -17.6823 -2.13727
-14.3761 -17.8379 -2.40051
-13.3826 -17.5515 -2.06073
-14.0264 -17.5958 -2.14878
-14.2908 -17.7744 -2.30614
-13.6825 -17.4797 -2.00462
-14.3103 -17.7892 -2.29323
-14.5669 -17.9885 -2.49342
-14.4923 -17.9217 -2.39881
-14.0412 -17.6208 -2.10612
-14.2272 -17.7327 -2.21335
-14.1444 -17.6736 -2.16201
-13.9298 -17.5959 -2.04091
-14.9229 -18.2624 -2.7021
-14.1506 -17.6872 -2.13741
-14.34 -17.8101 -2.24278
-14.764 -18.1406 -2.5444
-13.1804 -17.7984 -2.05206
-14.5219 -17.9478 -2.33965
-14.3485 -17.8193 -2.20241
-13.9412 -17.6172 -1.99681
-14.5476 -17.9656 -2.29509
-14.3659 -17.841 -2.14547
-12.7657 -18.1811 -2.1616
-14.8711 -18.2377 -2.52457
-13.6657 -17.7795 -1.96648
-13.2888 -17.9587 -2.01464
-14.5687 -17.9931 -2.24247
-14.3875 -17.8695 -2.10027
-14.287 -17.8231 -2.04959
-13.7949 -17.836 -1.98691
-14.5661 -17.9919 -2.19094
-14.4659 -17.9413 -2.14571
-13.7788 -17.8603 -1.98493
-14.7518 -18.1188 -2.29568
-13.5249 -17.9485 -1.98162
-13.1751 -18.0906 -2.02389
-15.0117 -18.3434 -2.49906
-14.834 -18.175 -2.36057
-14.3006 -17.8262 -2.01124
-13.4756 -18.002 -1.99264
-14.858 -18.2001 -2.34137
-15.2683 -18.5414 -2.64964
-12.9563 -18.2968 -2.09039
-14.2691 -17.8816 -2.0071
-15.1909 -18.4773 -2.57898
-14.5082 -17.9677 -2.0967
-14.4229 -17.9046 -2.01504
-15.2975 -18.7671 -2.79594
-15.1114 -18.4386 -2.49788
-14.6744 -18.0843 -2.18457
-14.6014 -18.0261 -2.14415
-14.1871 -17.8387 -1.92376
-13.3092 -18.1972 -2.01505
-14.4949 -17.9769 -2.06548
-13.2604 -18.2481 -2.0024
-15.3002 -18.5664 -2.59718
-14.6087 -18.0556 -2.09472
-14.5035 -17.9995 -2.04836
-14.4939 -17.8375 -1.94544
-15.1142 -18.4306 -2.46938
-15.2149 -18.5096 -2.50035
-14.5161 -17.8529 -1.89629
-14.1993 -17.8595 -1.84783
-15.4927 -18.7382 -2.69035
-13.0817 -18.4643 -2.04492
-14.8799 -18.2309 -2.22671
-14.2081 -17.897 -1.83744
-15.3213 -18.589 -2.54576
-14.5098 -18.0346 -1.98904
-15.8112 -18.9199 -2.85834
-15.2246 -18.5279 -2.46776
-14.7983 -18.191 -2.13889
-13.4713 -18.314 -1.95485
-14.993 -18.3172 -2.24133
-15.9084 -19.0015 -2.89034
-15.714 -18.8683 -2.76873
-15.5972 -18.8376 -2.72323
-15.4278 -18.6539 -2.56202
-15.6219 -18.8179 -2.69138
-15.4362 -18.6683 -2.54426
-15.5246 -18.7584 -2.60173
-13.2354 -18.5764 -2.01661
-15.6446 -18.8198 -2.65023
-14.6169 -18.1333 -1.98006
-14.4502 -18.0222 -1.84529
-15.548 -18.7694 -2.60013
-14.4421 -18.0313 -1.84966
-15.5456 -18.7649 -2.54616
-15.2739 -18.5464 -2.34811
-14.7243 -18.2093 -1.99037
-15.9464 -19.0502 -2.83781
-15.6469 -18.8225 -2.60706
-15.3494 -18.6074 -2.39587
-14.5035 -18.1534 -1.8936
-15.7452 -18.9142 -2.69823
-15.47 -18.6957 -2.44859
-14.6142 -18.1904 -1.93496
-15.661 -18.8488 -2.59791
-14.2256 -18.0056 -1.70903
-15.1181 -18.4413 -2.20074
-15.6623 -18.8488 -2.54905
-15.3793 -18.6376 -2.3637
-15.5635 -18.7877 -2.49319
-15.4727 -18.6917 -2.39176
-15.4017 -18.6555 -2.34362
-14.3385 -18.0721 -1.72457
-15.493 -18.7182 -2.39648
-14.6515 -18.2141 -1.89592
-15.8551 -19.0136 -2.64449
-14.3565 -18.097 -1.69097
-15.7624 -18.9578 -2.59569
-15.5819 -18.8011 -2.43903
-15.4083 -18.666 -2.30278
-14.6303 -18.2482 -1.85881
-15.7693 -18.9597 -2.54695
-15.2267 -18.5453 -2.1531
-16.0075 -19.109 -2.69024
-15.8679 -19.044 -2.61155
-15.1648 -18.5029 -2.09123
-14.9514 -18.3845 -1.972
-13.7856 -19.3648 -2.303
-15.5213 -18.7545 -2.29409
-15.7684 -19.0457 -2.53748
-15.337 -18.6254 -2.16216
-14.952 -18.44 -1.92827
-15.8009 -19.0004 -2.49265
-15.7107 -18.9111 -2.40451
-15.2625 -18.5889 -2.09667
-14.8934 -18.3448 -1.84496
-15.811 -19.0066 -2.45146
-15.5104 -18.7443 -2.24199
-14.9618 -18.4638 -1.89241
-15.5425 -18.7726 -2.24949
-15.9208 -19.0766 -2.4944
-14.1812 -19.404 -2.24982
-15.558 -18.7986 -2.19967
-16.0409 -19.1111 -2.53132
-15.8465 -19.0071 -2.38692
-14.2186 -19.3956 -2.19101
-15.1719 -18.5979 -1.94446
-15.943 -19.0733 -2.44811
-15.373 -18.6895 -2.04732
-15.8625 -19.0427 -2.34422
-15.7565 -18.951 -2.27803
-15.7566 -18.9485 -2.24354
-15.6714 -18.8925 -2.18615
-15.844 -19.1017 -2.33845
-15.5688 -18.8362 -2.09616
-15.9088 -19.2728 -2.4439
-15.8986 -19.314 -2.43602
-14.5196 -19.8206 -2.33135
-14.575 -18.4323 -1.53898
-15.8631 -19.09 -2.29081
-15.7876 -18.9775 -2.19492
-14.5278 -19.8223 -2.31487
-14.8777 -18.5725 -1.69495
-14.7096 -18.4538 -1.55824
-14.2923 -18.6436 -1.53543
-15.9709 -19.1703 -2.33506
-15.4045 -18.8049 -1.93531
-15.0058 -18.62 -1.69809
-14.2547 -18.7052 -1.53834
-16.0051 -19.1494 -2.29694
-15.5038 -18.8439 -1.98695
-15.6125 -18.9097 -1.99544
-15.5141 -18.8598 -1.95016
-15.4083 -18.8501 -1.89957
-14.6925 -18.5317 -1.533
-14.4642 -18.6547 -1.51166
-16.0044 -19.1598 -2.245
-15.9077 -19.0898 -2.18719
-14.923 -18.598 -1.59872
-15.8047 -19.0152 -2.10191
-15.7015 -18.9527 -2.04983
-14.9149 -19.8003 -2.27186
-14.6302 -20.0477 -2.32073
-14.9181 -19.8122 -2.25821
-14.4027 -18.7774 -1.51555
-15.9131 -19.1054 -2.14113
-15.8158 -19.0442 -2.08887
-15.6249 -18.9384 -1.97374
-15.5074 -18.8958 -1.89837
-14.9394 -19.7888 -2.23066
-14.6641 -18.6224 -1.49362
-16.0055 -19.167 -2.20435
-15.6152 -18.9478 -1.94091
-14.9514 -19.8006 -2.20028
-14.4512 -19.8661 -2.08503
-14.3212 -18.9136 -1.52739
-16.0185 -19.192 -2.19416
-15.7155 -19.0016 -2.00208
-15.4885 -18.9856 -1.92595
-14.6297 -18.694 -1.48343
-15.9322 -19.13 -2.11745
-15.8331 -19.071 -2.05265
-15.6264 -18.9977 -1.93343
-15.3428 -19.3227 -2.02839
-14.5677 -18.7918 -1.48534
-15.8539 -19.0978 -2.03916
-15.7303 -19.0429 -1.98522
-15.6566 -18.984 -1.93511
-14.7681 -18.7317 -1.49638
-14.5634 -18.833 -1.48326
-15.0192 -19.7559 -2.09541
-14.5166 -18.9133 -1.49265
-15.741 -19.0674 -1.95148
-15.5528 -18.9701 -1.85376
-14.7332 -18.8123 -1.4906
-14.4784 -18.9835 -1.49659
-16.1246 -19.3564 -2.23648
-16.0541 -19.255 -2.14627
-15.8475 -19.1245 -2.00452
-16.1377 -19.343 -2.21666
-15.5591 -18.9969 -1.8286
-15.0647 -19.7088 -2.03581
-16.0527 -19.2582 -2.11016
-15.7452 -19.0931 -1.92448
-15.6434 -19.0128 -1.84175
-15.5489 -19.008 -1.79684
-14.6739 -18.943 -1.48597
-15.8587 -19.1467 -1.98611
-14.6357 -19.0147 -1.49236
-14.2207 -19.4127 -1.55854
-15.8517 -19.1617 -1.9534
-15.7514 -19.1124 -1.90064
-15.0861 -19.7202 -1.98832
-14.8694 -18.8769 -1.48077
-14.5866 -19.1054 -1.50198
-14.1745 -19.4968 -1.56365
-14.8475 -18.9267 -1.48036
-14.565 -19.1536 -1.49962
-15.5457 -19.0152 -1.74464
-15.095 -19.7377 -1.96142
-14.4933 -19.2779 -1.51986
-15.5639 -19.0503 -1.74335
-14.7873 -20.0678 -2.0131
-16.0605 -19.3132 -2.0537
-15.9636 -19.2548 -1.99334
-15.0046 -18.9254 -1.48252
-15.8584 -19.2129 -1.90067
-14.7803 -20.1199 -1.99441
-14.7264 -19.1802 -1.49432
-14.3425 -19.5568 -1.54885
-14.9564 -19.0172 -1.47919
-15.767 -19.1953 -1.84023
-15.5563 -19.0658 -1.70684
-15.2519 -18.9723 -1.55264
-14.9461 -19.0719 -1.47892
-15.8654 -19.2393 -1.88488
-15.4476 -19.1016 -1.65979
-15.2589 -18.992 -1.52697
-14.9187 -19.1338 -1.48215
-15.8838 -19.2471 -1.8797
-15.3649 -19.0341 -1.57866
-14.8805 -19.2143 -1.49035
-14.4998 -19.6388 -1.55004
-15.2649 -19.0146 -1.50038
-15.9895 -19.3236 -1.92123
-15.4757 -19.1086 -1.59643
-15.0729 -19.1393 -1.4883
-15.9979 -19.357 -1.91157
-15.8925 -19.2963 -1.83434
-15.2367 -19.0935 -1.4943
-15.0531 -19.1925 -1.4872
-15.7608 -19.3192 -1.7985
-15.587 -19.1654 -1.64093
-15.4764 -19.1393 -1.58625
-15.2082 -19.1574 -1.4836
-15.8015 -19.2978 -1.74463
-15.4861 -19.1349 -1.57101
-15.1821 -19.242 -1.5069
-15.9026 -19.3463 -1.7854
-15.6051 -19.2083 -1.59911
-15.3346 -19.2104 -1.5304
-14.8948 -19.5487 -1.52477
-15.4708 -19.1992 -1.54453
-14.8082 -19.7274 -1.55567
-15.9537 -19.5735 -1.90858
-15.0963 -19.4607 -1.52176
-15.8066 -19.3105 -1.69527
-15.5997 -19.2522 -1.5823
-15.8173 -19.3556 -1.70191
-15.2655 -19.4202 -1.53238
-15.0002 -19.6831 -1.55239
-15.7147 -19.3108 -1.62634
-15.4118 -19.4527 -1.53479
-15.3718 -19.5557 -1.55274
-15.7322 -19.9923 -1.88993
-15.5121 -19.6557 -1.55872
-15.2063 -18.4591 -2.5415
-16.031 -19.3116 -2.00963
-15.8396 -19.1859 -2.34474
-15.0736 -19.9136 -1.57797
-14.6516 -18.1659 -1.96673
-14.7677 -18.1282 -2.05636
-16.1054 -19.5969 -2.3329
-15.6463 -20.1114 -1.95369
-15.0622 -18.569 -1.75537
-13.4693 -17.201 -2.67885
-13.6185 -17.2626 -2.71136
-13.631 -17.2669 -2.68584
-13.6025 -17.297 -2.68963
-13.5664 -17.3404 -2.67853
-13.5672 -17.2199 -2.56075
-13.3331 -17.2049 -2.56743
-13.3844 -17.1931 -2.53039
-13.7854 -17.2805 -2.5083
-13.4444 -17.2188 -2.44617
-13.4718 -17.2241 -2.4144
-13.5155 -17.2554 -2.3399
-13.3503 -17.2275 -2.29026
-13.8301 -17.4688 -2.5021
-14.1148 -17.6833 -2.67842
-13.3313 -17.3123 -2.21907
-13.6177 -17.5448 -2.41182
-13.5672 -17.5972 -2.41077
-13.6066 -17.5964 -2.37988
-14.0363 -17.5938 -2.37699
-13.3256 -17.3743 -2.15927
-14.038 -17.6103 -2.35781
-13.3641 -17.3795 -2.11827
-14.4157 -17.881 -2.57953
-14.4525 -17.8917 -2.54342
-14.62 -18.037 -2.64127
-14.3656 -17.8364 -2.44289
-14.3924 -17.8489 -2.38258
-14.8167 -18.1969 -2.70747
-14.4879 -17.9203 -2.43913
-14.6071 -18.006 -2.49357
-13.5549 -17.5301 -2.01347
-14.7639 -18.1376 -2.58191
-14.6658 -18.0871 -2.52156
-14.4299 -17.8813 -2.2946
-14.7819 -18.1553 -2.53601
-13.3385 -17.7081 -2.03415
-13.3017 -17.7402 -2.03576
-13.2099 -17.815 -2.04517
-14.7428 -18.1068 -2.39605
-14.552 -17.9845 -2.28537
-13.64 -17.7092 -1.97496
-14.8232 -18.1869 -2.44727
-13.6073 -17.741 -1.97441
-15.0111 -18.3397 -2.53613
-14.4025 -17.8897 -2.08625
-14.2991 -17.8423 -2.04245
-14.5969 -18.0149 -2.19456
-13.4717 -17.8688 -1.97667
-14.7725 -18.1425 -2.30626
-15.1979 -18.4875 -2.63931
