-27.8508 -29.119 -2.95012
-28.0544 -29.2469 -2.64902
-26.4331 -28.4942 -2.68214
-29.1244 -30.3586 -2.19641
-26.6032 -29.6633 -2.30806
-29.1317 -30.2725 -2.36707
-28.8713 -29.984 -2.82248
-27.6424 -29.0118 -3.02633
-26.4159 -28.5542 -2.60352
-28.7783 -30.1206 -2.76494
-28.4606 -30.7989 -1.79328
-26.5475 -28.4761 -2.54784
-27.3465 -28.7578 -2.2965
-28.7408 -29.8709 -2.5475
-28.6642 -29.8105 -2.7491
-28.303 -30.0447 -1.71291
-29.3111 -30.3556 -2.79521
-26.4465 -29.8151 -2.33426
-27.6052 -30.4287 -1.77627
-28.428 -29.692 -3.00592
-28.4615 -29.6429 -2.38291
-27.282 -28.5843 -2.87247
-26.567 -29.7599 -2.32079
-27.9067 -30.335 -1.73922
-28.1669 -30.3678 -1.73222
-27.3559 -28.852 -2.21514
-28.6627 -29.8177 -2.4423
-27.4403 -28.7238 -2.51928
-27.8031 -29.0457 -2.44121
-29.3802 -30.4862 -2.87605
-28.9045 -30.555 -1.86494
-27.9603 -29.5228 -3.12389
-27.7965 -30.5088 -1.75593
-28.158 -29.3715 -2.84766
-27.5989 -28.9059 -2.99326
-28.9731 -31.3599 -2.74674
-29.3034 -30.37 -2.55087
-28.617 -29.7934 -2.84724
-26.6545 -29.0094 -2.321
-29.2472 -31.0083 -2.8064
-25.9827 -29.096 -2.67191
-29.2636 -30.4229 -2.31398
-28.7329 -29.8912 -2.34296
-28.1086 -29.7631 -1.747
-28.4871 -29.6804 -2.30751
-29.1553 -30.4992 -2.70603
-27.3032 -28.5517 -3.1486
-27.5645 -28.8884 -2.42941
-27.5432 -30.3589 -1.78404
-26.8663 -28.5079 -2.97765
-28.1737 -29.3683 -2.55397
-29.1322 -30.115 -3.10877
-26.9633 -28.326 -2.75983
-27.2735 -28.5877 -2.88612
-28.1685 -29.455 -2.24281
-26.5554 -29.3416 -2.29959
-28.7603 -29.8947 -2.54031
-28.0606 -30.433 -1.75544
-27.3613 -28.7838 -2.28487
-28.3082 -30.2195 -1.74136
-26.5318 -29.4314 -2.31205
-27.5586 -29.1695 -1.96953
-26.7901 -28.7112 -2.33575
-28.8952 -30.0268 -2.44677
-27.1481 -28.8936 -2.23009
-28.5886 -29.7431 -2.4276
-27.1562 -28.4722 -2.86427
-29.0302 -30.2047 -2.31471
-28.8774 -30.3523 -1.87443
-27.2381 -28.6565 -2.59825
-28.5672 -30.1776 -1.77129
-29.1233 -30.1693 -2.7548
-27.7115 -29.0008 -2.29498
-28.3455 -29.6646 -2.09351
-27.1335 -28.458 -2.69225
-27.7154 -28.9706 -2.75242
-27.8608 -29.765 -1.74622
-28.3464 -29.7517 -1.995
-28.4041 -30.0112 -1.73766
-27.6608 -29.2136 -1.94181
-28.1086 -29.3176 -2.41512
-27.6443 -28.9029 -2.5919
-27.5522 -28.8063 -2.74776
-28.033 -30.9601 -2.30731
-28.6957 -29.8377 -2.68647
-28.9764 -30.0302 -2.86203
-27.829 -29.2354 -3.05836
-27.3481 -28.6199 -2.69453
-28.6773 -29.8259 -2.65729
-28.949 -31.3033 -2.59463
-29.1448 -30.3057 -2.34274
-26.9164 -29.0044 -2.27762
-28.2179 -29.4194 -2.417
-29.1484 -30.4963 -2.72625
-28.7052 -30.2168 -1.88046
-28.4262 -29.5996 -2.90742
-27.9068 -29.0119 -2.15074
-28.2542 -29.7895 -1.82516
-27.3357 -28.9911 -2.97893
-27.4137 -28.69 -2.83878
-26.5998 -28.3322 -2.8714
-29.308 -30.4106 -2.79135
-29.2169 -30.351 -2.44549
-28.1185 -29.3214 -2.70149
-27.608 -28.8741 -2.55812
-28.2175 -29.4478 -2.39791
-29.0148 -30.0684 -3.01438
-26.2251 -29.0162 -2.4467
-28.6141 -29.7919 -2.3438
-28.917 -31.4156 -2.7388
-29.0836 -31.226 -2.82319
-29.3431 -30.5614 -2.48658
-28.0444 -29.2715 -2.3523
-28.3353 -29.7341 -2.02972
-26.7993 -28.3007 -2.90221
-28.0303 -29.8921 -1.74043
-29.4091 -30.6067 -2.54725
-29.4411 -30.5746 -2.61385
-27.8502 -30.5669 -1.7729
-28.1855 -29.4671 -2.99878
-27.7973 -29.0001 -2.13813
-28.946 -30.3255 -2.64655
-27.517 -28.8123 -2.4987
-28.6299 -29.7862 -2.50778
-27.0413 -28.7438 -2.2784
-26.2903 -29.5827 -2.37345
-28.9592 -30.1946 -2.23616
-27.4238 -30.1362 -1.80316
-29.1895 -31.0863 -2.84026
-27.2372 -28.6201 -2.3911
-29.1261 -30.3216 -2.20686
-29.2656 -30.6513 -2.3356
-26.3296 -28.5404 -2.94175
-29.165 -30.9712 -2.46062
-29.1633 -30.3682 -2.25272
-27.9747 -29.1908 -2.57421
-26.754 -28.5051 -2.5606
-26.4676 -29.4976 -2.32583
-28.1988 -29.9018 -1.72462
-28.47 -29.6395 -2.4347
-29.3038 -30.3371 -2.88322
-27.499 -29.1091 -2.0429
-28.3979 -29.5285 -2.90696
-28.9325 -30.0299 -2.48803
-28.2722 -30.3006 -1.7369
-26.2504 -28.6257 -2.93963
-27.3046 -28.6019 -2.79503
-28.7637 -30.3069 -1.80144
-27.5313 -29.1179 -2.19901
-29.4351 -30.6292 -2.84696
-27.7656 -29.2686 -1.91476
-28.2673 -29.4055 -2.54118
-29.1979 -30.9532 -2.46207
-29.3854 -30.8434 -2.6625
-28.0428 -29.9312 -1.71548
-28.4392 -29.5903 -2.78948
-29.3377 -30.3868 -3.04078
-28.796 -30.1441 -2.73553
-27.7211 -29.2557 -2.05859
-28.8556 -29.9654 -2.841
-28.4246 -29.5897 -2.45689
-27.3105 -28.6387 -2.78374
-26.7226 -28.3444 -2.60204
-28.398 -29.7172 -2.16175
-27.2918 -28.618 -2.46799
-28.2522 -29.8605 -1.75146
-28.4498 -29.6048 -2.74499
-28.731 -30.1703 -1.85324
-28.9534 -31.3396 -2.88691
-28.9664 -30.3759 -1.9993
-26.5154 -29.1988 -2.33245
-26.858 -29.217 -2.26418
-26.8698 -28.323 -2.62035
-27.0774 -28.9703 -2.22568
-28.4111 -30.6306 -1.79217
-26.6446 -28.4651 -2.51063
-28.2045 -30.0175 -1.72778
-29.3286 -30.4023 -2.8377
-26.6645 -28.9022 -2.31629
-27.7403 -29.1583 -2.1334
-26.4418 -28.4879 -2.94265
-27.9523 -29.2512 -2.25102
-28.8136 -30.4768 -1.82507
-28.6516 -29.8905 -3.00029
-29.1155 -30.9416 -2.22453
-27.7586 -29.0229 -2.8978
-28.0234 -29.2395 -2.71105
-28.402 -30.0448 -1.71925
-27.158 -28.4737 -2.54056
-27.6717 -28.999 -2.34125
-27.0122 -30.2257 -1.93745
-28.7354 -29.9144 -2.29646
-27.572 -28.8608 -2.95489
-29.0553 -30.2424 -2.29224
-29.4361 -30.6731 -2.79951
-26.2664 -28.6078 -2.91258
-29.0672 -30.407 -2.64785
-29.2874 -30.9819 -2.60011
-28.9026 -30.3944 -1.84923
-29.149 -31.1095 -2.59692
-28.2046 -29.4945 -3.00194
-28.603 -29.7597 -2.85278
-29.1517 -30.4533 -2.09155
-29.3022 -30.5275 -2.83369
-27.0198 -28.4719 -2.44823
-26.9486 -28.4976 -2.38882
-26.9754 -28.4073 -2.78216
-28.1204 -30.3264 -1.73152
-28.0226 -30.9664 -2.32599
-28.4988 -29.7057 -2.96987
-29.3007 -30.7198 -2.35855
-28.9463 -31.1568 -2.23343
-28.8471 -30.4299 -1.81991
-29.1996 -30.2105 -3.19873
-29.0568 -30.1928 -2.44036
-28.4547 -30.6304 -1.77922
-29.0462 -31.1021 -2.41793
-29.3534 -30.5261 -2.51395
-28.9432 -31.3376 -2.61094
-28.4371 -29.5485 -2.58202
-29.0008 -30.025 -2.95145
-29.3771 -30.4774 -2.92109
-28.767 -29.9728 -2.99609
-28.8557 -30.0317 -2.79647
-26.6319 -28.8853 -2.32706
-28.9201 -30.2114 -2.98074
-27.8648 -29.0822 -2.58014
-27.3744 -28.9579 -2.78531
-29.4309 -30.6936 -2.78239
-27.1406 -30.3154 -1.87503
-29.104 -30.1756 -2.50806
-27.989 -29.1961 -2.78915
-27.4283 -28.9531 -2.86758
-29.0573 -31.2298 -2.88085
-27.9072 -29.5022 -1.79765
-26.1676 -28.676 -2.72643
-26.9534 -28.9173 -2.26005
-27.9977 -29.2068 -2.74683
-27.7729 -29.0377 -2.38614
-26.9479 -29.1877 -2.25275
-28.8751 -30.6549 -1.87539
-28.3411 -30.3501 -1.7447
-29.1399 -30.2657 -2.4006
-29.4017 -30.7032 -2.53902
-28.5896 -29.7644 -2.3485
-27.8868 -29.0982 -2.77934
-29.0178 -30.1481 -2.68982
-28.2442 -30.2262 -1.72479
-29.2576 -30.2451 -3.09058
-29.2428 -30.2065 -3.11401
-28.4307 -29.6674 -2.96992
-26.5353 -28.8598 -2.36279
-27.1791 -28.7182 -2.63509
-29.25 -30.2219 -3.14015
-28.3091 -29.468 -2.33511
-29.0546 -31.0523 -2.25105
-28.0108 -29.7115 -1.74175
-27.3598 -28.7992 -2.24487
-28.4814 -29.6385 -2.67971
-27.3513 -28.6982 -2.6434
-28.8089 -30.1558 -2.00019
-27.4266 -28.7268 -2.71522
-29.1498 -30.2036 -2.99421
-29.3073 -30.3232 -2.89689
-27.6664 -28.9327 -2.59985
-27.4762 -29.7532 -1.82084
-27.7064 -28.9592 -2.59546
-26.7787 -28.3659 -3.0204
-28.8927 -30.2688 -2.75111
-28.4848 -30.5703 -1.78594
-29.214 -30.4497 -2.74515
-27.4178 -29.1178 -2.07807
-28.5942 -30.2912 -1.75793
-28.7622 -30.2573 -1.85863
-26.8466 -28.4977 -2.35584
-28.3257 -29.4812 -2.64486
-27.0767 -28.6053 -2.31192
-26.3094 -28.713 -2.51596
-27.6502 -30.1405 -1.75582
-27.1417 -28.8442 -2.68133
-28.904 -30.3628 -1.86139
-28.375 -29.6918 -2.13982
-29.1651 -30.56 -2.06593
-29.1806 -30.4247 -2.18029
-26.9417 -28.9362 -2.25854
-29.1012 -30.1905 -2.88264
-29.1181 -30.1981 -2.74849
-29.1846 -30.5189 -2.75962
-27.1916 -28.4962 -2.83286
-29.2699 -30.7292 -2.24821
-27.7036 -29.6005 -1.80915
-28.1006 -29.3071 -2.78843
-27.7518 -28.9998 -2.49629
-29.2939 -30.3665 -3.12494
-28.8634 -31.2477 -2.14737
-27.4273 -28.7514 -3.13325
-28.3619 -29.9513 -1.78755
-28.5898 -29.7254 -2.68943
-27.8553 -29.1208 -2.30103
-28.3859 -29.6012 -2.22991
-28.9464 -30.2477 -2.18238
-27.8617 -28.9944 -2.14758
-28.1995 -29.5274 -2.14226
-27.8117 -29.0698 -2.79642
-27.5153 -30.4593 -1.79028
-28.2524 -29.402 -2.5866
-28.7415 -30.2137 -1.80003
-27.1949 -28.8574 -2.23462
-27.7883 -29.037 -2.12584
-27.5522 -29.955 -1.77627
-27.4794 -28.7349 -2.97044
-28.3699 -30.772 -2.16772
-28.613 -29.8648 -2.20995
-28.3014 -29.5505 -2.24773
-27.8597 -29.2019 -3.00755
-27.8612 -29.9481 -1.73977
-27.9113 -30.6053 -1.77142
-28.9643 -30.5081 -2.16535
-28.8437 -30.0867 -2.22534
-26.7349 -29.4111 -2.26083
-27.2174 -28.4593 -3.09476
-29.1583 -30.514 -1.99625
-26.3867 -28.546 -3.0454
-27.4036 -28.6648 -2.84739
-28.376 -29.5481 -2.90644
-27.0997 -28.5926 -2.61231
-26.841 -28.5918 -2.33193
-28.7163 -30.4193 -1.79777
-27.8944 -29.1138 -2.4959
-26.9372 -28.6734 -2.71416
-26.8782 -28.431 -2.52827
-28.9217 -31.1516 -2.14932
-26.9304 -28.4781 -2.40904
-26.4753 -28.6112 -2.44558
-26.456 -28.7555 -2.40887
-29.4039 -30.4728 -2.76329
-29.2146 -30.4124 -2.29968
-26.9612 -28.3282 -2.65244
-27.4944 -28.7437 -2.71164
-29.1579 -30.6526 -2.08274
-26.4609 -28.5284 -2.51833
-28.9455 -30.157 -2.25174
-28.4483 -29.7118 -3.02246
-29.2078 -31.0076 -2.5787
-28.0961 -29.3661 -2.23472
-28.3331 -29.4764 -2.40979
-29.0843 -30.407 -2.08555
-29.2121 -30.3589 -2.3964
-28.2517 -29.4105 -2.75403
-27.488 -30.0496 -1.79385
-26.9707 -28.3559 -2.79346
-26.7142 -28.7976 -2.31612
-28.3246 -29.8878 -1.77816
-27.7602 -29.0988 -3.00639
-27.6045 -29.0849 -2.17354
-28.3658 -31.2145 -1.92637
-28.6813 -29.8275 -2.41688
-28.7122 -29.9075 -2.29459
-26.7734 -29.1688 -2.26507
-29.3097 -30.4512 -2.49066
-26.8491 -28.7556 -2.30415
-27.8049 -29.0521 -2.39603
-27.0921 -28.6316 -2.32129
-28.8512 -31.1197 -2.09869
-27.0314 -29.2179 -2.20114
-27.6576 -29.6612 -1.80067
-27.7507 -29.8376 -1.74286
-26.9266 -29.0031 -2.2607
-29.308 -30.3965 -2.53426
-26.6541 -28.7489 -2.34517
-27.5439 -28.8217 -2.50331
-26.9739 -28.3454 -2.69675
-29.0392 -30.221 -2.29864
-27.4181 -30.3983 -1.8059
-26.613 -28.3432 -2.80876
-26.8376 -28.4745 -2.38486
-28.2558 -29.59 -2.22581
-27.6842 -29.6554 -1.79029
-29.1139 -30.1458 -3.09164
-28.0579 -29.6513 -1.75677
-29.1756 -30.2972 -2.45568
-28.8692 -30.0058 -2.49962
-28.9738 -30.0578 -2.84489
-28.3159 -29.6902 -2.0896
-26.6069 -28.8663 -2.34322
-28.2011 -29.3549 -2.64116
-27.8004 -30.1429 -1.74426
-27.7774 -29.8403 -1.77739
-28.0401 -29.248 -2.43008
-26.9999 -29.007 -2.23744
-27.2128 -28.5395 -2.74063
-27.3132 -30.3755 -1.83889
-27.0153 -28.3988 -2.59113
-28.5226 -29.6708 -2.50756
-29.22 -30.5433 -2.1449
-26.9252 -29.2534 -2.26761
-28.4271 -29.8176 -2.06769
-28.2509 -30.6984 -2.22032
-26.5237 -28.7559 -2.39063
-27.0313 -28.3614 -2.68025
-28.1641 -29.5175 -2.20807
-26.9475 -28.3098 -2.89267
-26.4866 -28.3941 -2.73316
-28.7956 -31.3871 -2.43576
-28.0162 -29.217 -2.69672
-27.7601 -29.3143 -1.85835
-26.9223 -28.5435 -2.70026
-26.9232 -28.4705 -2.77667
-27.826 -29.0854 -2.86878
-27.3082 -29.2447 -2.05335
-28.537 -30.6109 -1.78864
-27.3984 -28.6573 -2.88822
-28.408 -29.5616 -2.50637
-28.8391 -29.9738 -2.31993
-27.4404 -28.75 -2.7467
-27.6056 -28.8666 -2.59365
-28.8751 -30.0718 -2.87596
-27.5 -29.0442 -2.08431
-28.1113 -29.3371 -2.74658
-27.759 -30.4142 -1.75753
-29.2467 -30.9023 -2.54633
-28.0655 -29.8113 -1.73385
-27.6122 -29.7146 -1.79373
-28.2045 -29.3955 -2.54026
-26.9391 -28.3405 -2.83334
-28.2263 -29.4406 -2.94712
-27.2596 -28.5663 -2.89527
-28.7441 -30.0602 -2.14165
-29.116 -30.2955 -2.6469
-29.0362 -30.2205 -2.19353
-26.3856 -28.4616 -2.72083
-27.127 -28.7793 -2.25508
-28.4106 -30.414 -1.74944
-26.4776 -28.6522 -2.42044
-28.7499 -29.863 -2.88564
-27.3991 -30.2244 -1.81713
-29.1236 -30.1472 -3.13801
-26.2331 -28.7821 -2.52689
-26.8421 -29.0652 -2.2699
-29.1943 -30.5722 -2.84196
-28.9797 -30.2319 -2.67649
-26.9065 -28.6676 -2.31193
-29.2914 -30.6068 -2.39847
-27.88 -29.8373 -1.74809
-27.4064 -28.9207 -2.88634
-28.5282 -29.9286 -2.06589
-27.7472 -29.5031 -1.80041
-28.368 -29.5619 -2.29625
-26.6265 -28.3985 -3.03528
-27.5042 -29.9217 -1.79611
-28.713 -29.8308 -2.61938
-28.951 -30.1092 -2.30166
-27.246 -28.5292 -2.96568
-28.92 -30.0675 -2.66554
-27.1395 -28.4999 -2.646
-29.3537 -30.787 -2.87702
-29.3354 -30.3485 -2.85041
-27.9099 -29.0094 -2.09824
-28.737 -30.2758 -1.79443
-29.0164 -30.101 -2.5748
-28.3901 -30.5023 -1.76487
-29.0094 -30.1586 -2.39891
-28.447 -29.637 -2.84738
-27.3164 -28.975 -2.76191
-28.3696 -29.5815 -2.32642
-28.8407 -30.2841 -1.88479
-26.9831 -28.3254 -2.77264
-26.9897 -28.7061 -2.29798
-27.0092 -28.4052 -2.5471
-26.806 -28.8053 -2.30748
-27.6806 -28.916 -2.73288
-27.1474 -28.595 -2.30043
-29.1263 -30.3937 -2.15887
-27.2105 -28.6674 -2.30202
-28.4312 -30.1329 -1.71741
-29.1752 -30.2509 -2.49431
-29.2247 -30.8021 -2.22998
-28.4192 -29.5815 -2.69091
-28.8888 -30.5949 -1.83817
-29.0852 -30.8863 -2.1513
-28.9607 -30.1556 -2.28792
-26.8937 -28.3084 -2.73268
-26.9128 -28.4001 -2.54683
-26.5325 -28.4723 -2.58043
-28.4729 -29.61 -2.61035
-27.0997 -28.6012 -2.33973
-28.8818 -31.2983 -2.34081
-27.9918 -29.2259 -2.94862
-28.5782 -29.7392 -2.45313
-27.819 -30.0729 -1.74445
-28.203 -29.853 -1.72888
-28.386 -29.7903 -2.14079
-27.1476 -28.8466 -2.66663
-26.9669 -29.2116 -2.20031
-26.6179 -28.4771 -2.53777
-28.3519 -30.0564 -1.72509
-28.9601 -30.0736 -2.31544
-29.2626 -30.276 -3.01313
-29.2429 -30.4106 -2.34951
-28.7799 -30.1325 -2.75085
-26.8019 -28.2942 -2.85339
-28.2759 -29.6337 -2.15818
-28.0703 -29.2625 -2.5476
-27.9482 -29.3391 -2.18237
-28.6144 -30.3705 -1.75815
-28.4758 -29.6885 -2.29322
-27.9017 -29.7536 -1.74274
-28.9388 -30.4227 -2.06207
-28.7836 -29.9208 -2.48316
-27.4071 -28.6559 -3.13413
-29.1281 -31.1718 -2.81353
-27.8375 -29.7269 -1.7619
-26.5329 -28.416 -2.62234
-29.3324 -30.4927 -2.44486
-27.6051 -28.9623 -2.24405
-27.777 -30.2281 -1.74586
-26.7261 -29.3989 -2.28294
-27.7073 -28.945 -2.64792
-29.2835 -30.9194 -2.93147
-26.5622 -29.1392 -2.32442
-28.5416 -29.7735 -2.97526
-28.7681 -30.1116 -2.78349
-28.126 -29.3334 -2.42707
-28.2649 -31.3145 -2.19467
-28.7626 -30.7344 -1.82259
-28.8098 -30.0633 -2.80536
-29.1484 -30.4393 -2.71096
-27.0661 -28.9904 -2.21836
-27.8327 -30.6372 -1.77662
-27.499 -28.7673 -2.55991
-26.8554 -29.2473 -2.25662
-27.9589 -29.1677 -2.5498
-29.1347 -30.3501 -2.18018
-28.4462 -29.6184 -2.40358
-28.9747 -30.1044 -2.50199
-27.4266 -28.7837 -2.37151
-27.5904 -28.777 -2.69531
-28.5162 -29.6646 -2.36214
-26.6558 -28.4413 -2.52391
-27.7915 -29.3226 -1.89371
-27.3008 -28.9427 -2.23159
-27.8499 -30.1054 -1.74699
-26.2237 -28.9353 -2.46431
-28.8118 -30.6908 -1.84583
-26.8402 -28.2932 -2.78514
-28.7592 -30.4579 -1.79588
-26.951 -28.3141 -2.83937
-28.3802 -29.8389 -3.10962
-27.795 -29.2894 -2.20425
-29.3095 -30.4255 -2.50495
-27.6475 -29.3021 -1.8883
-28.8097 -29.9718 -2.35089
-26.6133 -28.3654 -2.60172
-28.0968 -29.2964 -2.54228
-27.5559 -29.0733 -2.0113
-29.3631 -30.4131 -2.65411
-29.167 -30.4623 -2.73573
-29.0763 -30.1152 -3.14837
-26.0553 -28.8811 -2.85297
-27.365 -30.3354 -1.81348
-26.7717 -29.1864 -2.26497
-28.4582 -29.6064 -2.4957
-28.7735 -30.3775 -1.7954
-28.2637 -29.716 -1.93929
-28.7224 -29.9324 -2.277
-26.9603 -29.1496 -2.27622
-27.3349 -28.5671 -3.02683
-26.9468 -28.8331 -2.27578
-28.4592 -29.747 -2.20405
-27.7555 -29.0375 -2.2592
-28.2497 -29.4363 -2.68869
-28.0065 -30.0017 -1.72247
-26.9143 -29.4879 -2.15294
-29.3026 -30.3462 -2.57909
-26.7613 -29.07 -2.28237
-28.86 -30.1624 -2.11121
-28.5076 -29.8436 -2.17843
-27.6732 -28.9411 -2.47387
-28.0108 -30.6436 -1.77621
-28.5891 -29.7464 -2.68066
-28.9786 -31.1193 -2.23548
-27.9722 -29.3475 -2.13757
-28.5142 -29.7339 -2.27573
-26.6234 -28.5085 -2.50461
-27.4669 -28.6746 -3.01317
-27.656 -30.5472 -1.78222
-28.7049 -31.4751 -2.43863
-27.8049 -29.0935 -2.33856
-28.8894 -31.2863 -2.44351
-28.2375 -29.409 -2.78727
-29.2616 -30.405 -2.49541
-29.421 -30.5571 -2.74445
-27.4605 -30.2277 -1.78499
-29.3543 -30.4278 -2.61877
-26.4996 -29.4186 -2.31541
-26.6366 -28.3131 -2.9327
-26.8516 -28.6429 -2.32677
-27.1897 -29.3447 -2.06718
-27.9667 -29.3047 -3.00978
-28.3954 -30.2399 -1.74075
-27.8047 -29.1085 -2.29632
-26.9243 -28.3432 -2.86608
-27.4406 -28.7722 -2.39343
-27.3553 -28.9814 -2.82075
-28.7004 -30.91 -2.22307
-28.246 -29.4412 -2.43898
-29.2645 -30.8537 -2.50391
-29.3025 -30.4652 -3.00863
-27.0031 -28.3526 -2.70225
-28.4623 -30.0499 -1.77607
-27.3105 -28.7176 -2.62867
-29.2276 -30.264 -3.05478
-27.0524 -28.6945 -2.66103
-27.6529 -28.9143 -2.49689
-29.2623 -30.7587 -2.27072
-27.3608 -28.7475 -2.33571
-26.9708 -28.6848 -2.66026
-27.3077 -28.6681 -2.40493
-27.3165 -28.7543 -2.65152
-29.2702 -30.3961 -2.73962
-27.5535 -29.6967 -1.80667
-28.4757 -30.4018 -1.76129
-28.9224 -31.2521 -2.44478
-27.9638 -29.1724 -2.83842
-28.0599 -29.4712 -2.14322
-28.5748 -29.7394 -2.85555
-27.7499 -29.4073 -1.81586
-26.925 -28.3274 -2.81991
-27.2284 -28.5289 -2.65907
-29.2017 -31.0486 -2.89277
-28.9581 -30.0457 -2.59509
-27.856 -30.1461 -1.73932
-28.4884 -30.3521 -1.74846
-28.0477 -29.2607 -2.38901
-28.7072 -30.2144 -1.80249
-27.2755 -28.9731 -2.8013
-28.154 -30.2552 -1.73427
-28.8458 -31.4871 -2.72773
-26.4155 -28.4773 -2.81392
-27.248 -28.6999 -2.28875
-26.9188 -28.5073 -2.39934
-29.2686 -30.5912 -2.28606
-27.4612 -28.8449 -2.29522
-27.8462 -29.0673 -2.54403
-27.7914 -29.451 -1.81506
-28.076 -29.8876 -1.71846
-27.4231 -28.7001 -2.743
-28.3684 -29.5066 -2.34758
-27.1103 -29.0092 -2.23997
-29.0252 -30.1586 -2.66467
-26.23 -28.6762 -2.69743
-27.7345 -30.353 -1.76192
-27.9654 -29.1922 -2.75457
-27.3139 -28.6356 -2.4772
-28.0038 -29.2183 -2.40697
-29.1169 -31.1517 -2.89348
-28.3144 -30.0965 -1.71906
-29.402 -30.4659 -2.60113
-28.3357 -30.092 -1.72304
-28.8363 -31.3852 -2.563
-28.464 -30.7483 -1.79601
-28.8884 -31.3316 -2.57527
-28.1211 -31.0089 -2.21743
-29.1861 -31.0827 -2.58091
-29.132 -30.2255 -2.45298
-27.8233 -29.0533 -2.56853
-26.7687 -28.3017 -2.8511
-28.752 -29.9062 -2.79597
-26.7436 -28.3946 -2.54073
-26.677 -29.2767 -2.30922
-26.7183 -28.7271 -2.34382
-28.957 -30.2576 -2.14727
-28.4513 -30.4572 -1.76044
-28.9208 -30.335 -2.6628
-26.9885 -28.3449 -2.84803
-29.0484 -30.2019 -2.34993
-27.7396 -29.2024 -2.10567
-26.2487 -28.6372 -3.03255
-27.85 -29.1392 -2.28785
-26.7421 -28.6459 -2.35128
-29.2414 -30.3456 -2.69123
-28.2685 -29.5241 -2.26386
-28.3222 -29.4748 -2.79682
-26.3811 -29.7238 -2.34637
-28.5377 -30.4738 -1.77621
-29.0029 -30.0522 -2.93512
-28.7388 -31.5706 -2.73717
-29.1957 -31.0864 -2.80186
-28.386 -29.5786 -2.25438
-28.6382 -30.3317 -1.75218
-28.075 -30.2826 -1.73198
-27.9422 -29.1692 -2.80282
-28.0503 -29.6005 -3.11459
-27.0569 -28.8112 -2.25387
-27.4469 -28.6707 -2.75857
-27.2146 -28.6651 -2.60779
-29.2271 -30.9234 -2.46544
-29.0558 -30.3448 -2.17491
-27.7636 -29.0079 -2.20005
-29.2101 -30.5282 -2.8002
-29.1441 -30.986 -2.41122
-27.2244 -30.1095 -1.85655
-29.0929 -30.1653 -2.83457
-26.3048 -28.6981 -2.54509
-28.5024 -30.7581 -1.80452
-27.2594 -30.0205 -1.85063
-29.1437 -30.2378 -2.67332
-29.0499 -30.1582 -2.45305
-27.8919 -29.1235 -2.90303
-28.4045 -29.7504 -2.04963
-29.0902 -30.2282 -2.31314
-27.8458 -30.4343 -1.7578
-27.7252 -29.2664 -1.90662
-26.6682 -28.3516 -2.60655
-27.4082 -28.6517 -3.10395
-26.2336 -28.6451 -2.96762
-27.9447 -30.1515 -1.72878
-28.1156 -29.2799 -2.80083
-29.1685 -30.8663 -2.23512
-28.0904 -29.4713 -2.09507
-27.7544 -29.0009 -2.79264
-26.2907 -29.4157 -2.37352
-26.9435 -28.3175 -2.67934
-26.7213 -28.3001 -2.64472
-27.5382 -29.0012 -2.09466
-27.6655 -28.9651 -2.35294
-26.6676 -28.5143 -2.41085
-28.3629 -30.0014 -1.74362
-27.4111 -28.697 -2.79731
-27.4253 -28.6848 -3.08008
-28.4748 -29.6335 -2.65403
-28.8004 -29.9287 -2.65984
-28.6448 -30.406 -1.7775
-29.0111 -30.1049 -2.74183
-27.4177 -28.7639 -2.70199
-26.6528 -28.326 -2.89368
-27.0595 -28.4034 -2.83875
-27.6984 -30.3145 -1.75642
-26.9553 -29.1662 -2.26389
-28.7304 -31.3552 -2.2559
-29.3121 -30.862 -2.58234
-28.5619 -29.7371 -2.72586
-28.2161 -30.3492 -1.72721
-28.6833 -30.6276 -1.81343
-27.5533 -28.8512 -2.44619
-27.4526 -28.781 -2.44335
-27.4087 -28.6297 -2.90131
-29.3191 -30.3261 -2.85166
-28.2625 -29.5565 -2.24813
-28.0357 -30.9806 -2.46348
-28.3027 -30.1035 -1.72787
-28.2703 -30.8015 -1.80439
-28.7411 -29.8597 -2.84637
-29.2513 -30.4851 -2.18544
-27.0092 -28.4779 -3.09243
-26.4869 -29.3087 -2.3139
-26.802 -29.009 -2.26424
-28.1982 -29.4055 -2.7969
-28.2101 -29.3956 -2.50139
-29.2793 -30.465 -2.41292
-28.5858 -29.7223 -2.46156
-28.6875 -29.942 -3.03746
-28.5258 -29.6819 -2.48372
-29.0796 -30.4584 -2.02798
-29.3882 -30.7088 -2.90707
-29.404 -30.817 -2.64708
-26.2694 -29.4993 -2.36839
-27.3504 -28.7211 -2.35379
-29.1545 -30.2205 -2.50203
-26.4981 -28.8521 -2.3718
-29.0998 -30.8608 -2.15716
-26.5397 -28.3496 -2.78136
-28.502 -29.649 -2.39278
-29.0393 -30.0587 -3.03804
-28.0107 -30.2512 -1.74454
-27.8714 -30.0567 -1.74451
-26.9583 -28.3188 -2.7935
-27.7356 -28.9788 -2.54198
-28.8775 -30.3083 -1.92312
-27.4659 -28.8087 -2.84718
-29.2933 -30.3101 -2.99741
-29.068 -30.2202 -2.81866
-28.5694 -30.3875 -1.77208
-28.3595 -29.5145 -2.69852
-28.3384 -29.5152 -2.84724
-27.5614 -28.8161 -2.71021
-29.2675 -30.5321 -2.22654
-29.1733 -30.2514 -2.74711
-26.3139 -29.4986 -2.36347
-28.4533 -29.9597 -1.78349
-29.0946 -30.1052 -3.20385
-27.4279 -28.7068 -3.05641
-28.4232 -30.3575 -1.74463
-27.0497 -28.4687 -2.49647
-26.8869 -29.3361 -2.22429
-26.4519 -29.5692 -2.32934
-28.2344 -29.4142 -2.4835
-28.0164 -29.9728 -1.73064
-28.7466 -29.8267 -2.8583
-27.5358 -28.9628 -2.14403
-27.7269 -29.7274 -1.76541
-27.7267 -29.7658 -1.76101
-28.9954 -30.4443 -1.93579
-27.3227 -28.5902 -3.08202
-28.1418 -29.4443 -3.01086
-27.7055 -29.8918 -1.75805
-27.3033 -28.9873 -3.00255
-28.4995 -30.9264 -1.83661
-28.3985 -31.1828 -1.93261
-26.7108 -28.3224 -2.90293
-27.9539 -29.1584 -2.59344
-28.9651 -30.3519 -1.91283
-29.1519 -30.5027 -2.04969
-27.5117 -29.0548 -2.06139
-28.0849 -30.9753 -2.36982
-28.0683 -30.988 -2.22866
-29.0283 -31.1069 -2.31726
-28.6333 -30.8867 -1.83995
-28.213 -29.4078 -2.45435
-28.547 -29.7375 -2.28765
-27.077 -28.4146 -2.74602
-26.9129 -28.6044 -2.33081
-28.6899 -29.814 -2.45549
-26.8607 -28.7041 -2.30789
-27.3584 -29.0046 -2.95367
-27.1081 -28.4084 -3.03471
-27.351 -30.0653 -1.81982
-27.5448 -28.7829 -2.6284
-27.5727 -28.9553 -3.04335
-28.6415 -29.8632 -2.20382
-27.7707 -29.1778 -2.09602
-26.8064 -28.2931 -2.8002
-26.7037 -28.2917 -2.69198
-27.5813 -30.0721 -1.76611
-28.8959 -30.7498 -1.91263
-28.325 -29.5684 -2.86701
-26.9547 -28.4727 -2.43805
-28.5541 -29.7972 -3.00401
-28.8689 -30.258 -2.0027
-27.3581 -28.6897 -2.89333
-27.1905 -30.2809 -1.86237
-27.3373 -28.581 -3.07461
-29.4325 -30.5857 -2.72085
-26.6616 -28.6845 -2.34927
-29.1864 -30.5029 -2.09655
-27.8362 -30.0108 -1.74277
-27.2435 -28.5531 -2.69808
-27.3591 -28.6204 -2.9463
-26.6226 -29.7017 -2.24874
-29.3566 -30.3596 -2.9449
-28.5328 -29.6958 -2.82754
-28.8157 -31.218 -2.15973
-27.2456 -28.7525 -2.24191
-29.082 -30.3786 -2.11811
-28.5477 -30.1073 -1.75623
-28.8465 -30.1203 -2.71927
-27.9639 -30.2168 -1.74382
-27.9118 -28.9938 -2.18603
-26.9748 -28.7469 -2.68132
-27.3409 -28.5963 -3.04969
-27.7738 -29.0196 -2.16541
-27.088 -29.0577 -2.23343
-28.3725 -29.5383 -2.68326
-28.8617 -30.6384 -1.81982
-28.4171 -30.9982 -1.85202
-28.3134 -30.8303 -1.80578
-29.017 -30.3005 -2.02135
-28.7413 -29.8264 -2.60705
-27.8896 -30.6082 -1.76513
-26.473 -28.5363 -2.57566
-27.6052 -29.1125 -2.14022
-27.662 -28.9102 -2.39506
-29.2684 -30.9061 -2.9598
-27.6279 -30.1789 -1.77369
-26.7547 -28.9035 -2.30373
-27.8575 -29.1687 -2.25521
-27.0377 -28.8493 -2.25032
-27.2256 -28.5136 -2.99937
-26.5518 -29.2996 -2.31113
-27.7051 -28.9237 -2.69558
-28.8491 -29.9745 -2.55834
-28.7846 -29.9903 -2.98685
-28.318 -29.5973 -3.00573
-28.0377 -29.8426 -1.72908
-28.0954 -30.774 -1.79792
-29.0136 -30.453 -3.1477
-29.2631 -30.2525 -3.14376
-27.9109 -29.1587 -2.94708
-27.8481 -29.0672 -2.58958
-28.4019 -30.1663 -1.71449
-27.0096 -29.0617 -2.25222
-29.006 -30.1429 -2.44238
-28.1667 -30.0182 -1.7231
-27.5561 -28.9281 -2.30471
-27.7662 -29.006 -2.74948
-26.9501 -28.335 -2.88579
-27.5727 -28.9626 -2.24865
-28.7997 -29.9279 -2.90948
-27.2251 -28.6731 -2.2697
-26.4678 -29.6879 -2.34064
-28.4489 -29.6182 -2.86553
-27.5563 -29.0595 -3.0761
-28.5022 -29.7109 -2.29879
-28.7513 -29.87 -2.79385
-28.0526 -29.9485 -1.72302
-28.4417 -29.8382 -2.02669
-27.5007 -28.9611 -2.14661
-27.3525 -28.8531 -2.22645
-27.1528 -28.754 -2.25842
-28.7465 -30.0999 -2.0999
-26.1667 -28.8137 -2.74011
-25.9696 -28.988 -2.73756
-25.9608 -29.0523 -2.73523
-25.981 -29.0784 -2.68152
-25.9951 -29.1104 -2.64002
-26.0121 -29.1472 -2.59145
-26.022 -29.1954 -2.55499
-29.0741 -30.5107 -1.98386
-29.1052 -30.1863 -2.78968
-29.256 -30.4536 -2.29422
-29.4176 -30.4894 -2.74254
-27.57 -30.2844 -1.78426
-26.6597 -28.5549 -2.4011
-27.83 -29.9206 -1.73822
-27.3876 -28.7862 -2.27698
-27.5133 -28.8252 -2.46212
-26.791 -28.29 -2.92868
-29.0244 -30.1934 -2.33723
-26.7109 -28.4473 -2.54096
-28.4708 -29.65 -2.81016
-27.6952 -29.8121 -1.76004
-26.8909 -28.9215 -2.24787
-26.4618 -29.0157 -2.35641
-27.6811 -28.9148 -2.42655
-26.4446 -28.4307 -2.96705
-26.7722 -28.3219 -2.96308
-26.9051 -28.354 -2.98766
-26.3912 -28.6207 -2.9932
-26.9055 -28.3324 -2.93927
-26.8294 -28.2708 -2.8382
-26.662 -28.3835 -2.83423
-26.2826 -28.6068 -2.87564
-26.8447 -28.2793 -2.79551
-26.7232 -28.2694 -2.73922
-26.5742 -28.3236 -2.71337
-26.5885 -28.3168 -2.68324
-26.0256 -28.9257 -2.89218
-27.0106 -28.3555 -2.79697
-26.5987 -28.3248 -2.6553
-26.7521 -28.2801 -2.66438
-26.889 -28.3046 -2.69131
-26.1419 -28.748 -2.74107
-26.9794 -28.412 -2.77042
-26.8962 -28.319 -2.6445
-26.9856 -28.4405 -2.74441
-26.4228 -28.5042 -2.61446
-26.1452 -28.8037 -2.70179
-26.7555 -28.3171 -2.60173
-26.1662 -28.8022 -2.65754
-26.9084 -28.3305 -2.61689
-26.9042 -28.3547 -2.59248
-26.6068 -28.4502 -2.57553
-26.7862 -28.3566 -2.54981
-26.6286 -28.4151 -2.54302
-26.2025 -28.7692 -2.59848
-26.7599 -28.4526 -2.5694
-26.1974 -28.8062 -2.58887
-26.9036 -28.372 -2.55788
-26.4641 -28.5656 -2.49251
-26.7493 -28.5465 -2.55388
-26.9364 -28.3981 -2.52452
-27.0472 -28.4987 -2.60072
-26.7894 -28.4839 -2.48885
-26.6628 -28.4997 -2.44051
-26.4793 -28.5741 -2.45538
-27.0595 -28.4498 -2.5419
-26.2478 -28.8338 -2.48775
-26.806 -28.4955 -2.44672
-26.4699 -28.6675 -2.44254
-27.0663 -28.5015 -2.52692
-26.4624 -28.7085 -2.4254
-27.0868 -28.4962 -2.48022
-26.6598 -28.6108 -2.38507
-27.0986 -28.5089 -2.44232
-26.9491 -28.4737 -2.40604
-26.9871 -28.4815 -2.37802
-26.644 -28.711 -2.37539
-26.4554 -28.8415 -2.37613
-26.4443 -28.8893 -2.37661
-27.1122 -28.5279 -2.41195
-26.4434 -28.9463 -2.37679
-27.1083 -28.5458 -2.38926
-26.4208 -28.9857 -2.38012
-26.1403 -29.3157 -2.44752
-26.4208 -29.0077 -2.36972
-26.6427 -28.7999 -2.34163
-26.4009 -29.0529 -2.37589
-27.0047 -28.5501 -2.31593
-26.6606 -28.8572 -2.32433
-27.1345 -28.5744 -2.34157
-26.8194 -28.761 -2.30511
-26.6143 -28.9086 -2.32773
-27.1397 -28.599 -2.32947
-26.6263 -28.9414 -2.31565
-26.3772 -29.2226 -2.36024
-26.9992 -28.6525 -2.29473
-26.6154 -28.9931 -2.31699
-26.3524 -29.3012 -2.36193
-26.6167 -29.0479 -2.31022
-26.3448 -29.3647 -2.35725
-27.0113 -28.7705 -2.27907
-27.0085 -28.7527 -2.26171
-26.8063 -28.9735 -2.26546
-26.7929 -29.1041 -2.27388
-26.7942 -29.0987 -2.26228
-26.5069 -29.5143 -2.31329
-26.7228 -29.4988 -2.25594
-27.6124 -30.4497 -1.77211
-28.3255 -29.5493 -2.87297
-28.6067 -29.7464 -2.93788
-29.0626 -30.2062 -2.65923
-28.5539 -29.7946 -2.25782
-28.9068 -30.0924 -2.36243
-28.7094 -29.928 -2.26054
-28.6728 -29.8381 -2.40125
-29.1361 -30.2876 -2.38475
-27.1661 -28.4879 -3.15889
-26.7323 -28.5384 -3.1164
-26.5236 -28.4014 -2.98281
-27.312 -28.4984 -3.15099
-26.7479 -28.3037 -2.89911
-26.9197 -28.4971 -3.0644
-26.7146 -28.3396 -2.93749
-26.2981 -28.5753 -2.97937
-27.2179 -28.4694 -3.06435
-26.9015 -28.3344 -2.90317
-26.6045 -28.3443 -2.84254
-27.3138 -28.5587 -3.09977
-27.2167 -28.4964 -3.07263
-26.8998 -28.3128 -2.89568
-26.3574 -28.5125 -2.90609
-27.336 -28.5558 -3.09258
-27.2184 -28.5031 -3.04451
-26.9136 -28.3221 -2.84981
-27.132 -28.421 -2.95805
-26.6782 -28.2916 -2.73448
-26.8188 -28.3034 -2.75117
-27.1588 -28.4612 -2.89989
-27.0267 -28.4214 -2.86311
-26.7158 -28.2771 -2.679
-27.2486 -28.5536 -2.94354
-26.9565 -28.3373 -2.74131
-26.8273 -28.316 -2.71745
-27.4443 -28.7053 -3.08921
-27.0688 -28.4034 -2.7917
-26.514 -28.3983 -2.67404
-27.1663 -28.5054 -2.8407
-27.4565 -28.69 -3.04067
-27.1647 -28.4996 -2.79583
-26.2324 -28.657 -2.70804
-27.4881 -28.7018 -2.98751
-27.3663 -28.6507 -2.9444
-26.9993 -28.3676 -2.64574
-26.5226 -28.4603 -2.60953
-26.8736 -28.3491 -2.59414
-26.2126 -28.7231 -2.6945
-27.2751 -28.5907 -2.84286
-27.097 -28.4531 -2.69534
-27.2901 -28.5989 -2.84018
-27.1983 -28.5201 -2.73447
-26.7223 -28.4268 -2.54175
-26.2718 -28.6914 -2.60455
-27.5018 -28.7455 -2.93592
-27.4061 -29.0165 -3.0595
-26.283 -28.6944 -2.58088
-27.3487 -29.1866 -3.12999
-27.0926 -28.5396 -2.64919
-26.5653 -28.51 -2.48744
-27.4499 -28.9354 -2.98278
-27.4117 -28.6768 -2.80609
-27.0714 -28.5692 -2.66211
-27.4635 -28.9165 -2.95608
-26.907 -28.4133 -2.50263
-26.6861 -28.5472 -2.53167
-27.3207 -28.6206 -2.71791
-27.2552 -28.5598 -2.6436
-27.0224 -28.4352 -2.53092
-26.8649 -28.4844 -2.52024
-26.5679 -28.5555 -2.44911
-26.3049 -28.7587 -2.49323
-27.4512 -28.6988 -2.74
-27.3511 -28.6186 -2.6579
-26.9142 -28.4661 -2.45176
-26.689 -28.6071 -2.48376
-27.6416 -28.9052 -2.88724
-27.2604 -28.6021 -2.60326
-27.1672 -28.5108 -2.49662
-27.0461 -28.4751 -2.47012
-26.7595 -28.5095 -2.40089
-26.2961 -28.8086 -2.46867
-27.3524 -28.6553 -2.64584
-26.911 -28.4854 -2.4237
-26.2893 -28.835 -2.46164
-27.6449 -28.912 -2.84523
-26.5479 -28.6639 -2.40686
-26.2784 -28.8673 -2.45803
-26.7456 -28.5464 -2.39125
-26.5353 -28.6978 -2.40978
-26.2657 -28.9105 -2.44957
-27.6623 -28.9415 -2.83622
-27.1658 -28.5368 -2.47173
-26.7634 -28.5555 -2.37036
-26.5198 -28.7031 -2.40377
-27.3872 -28.9516 -2.7574
-27.2533 -28.949 -2.71829
-27.2825 -28.5757 -2.50925
-27.1759 -28.5511 -2.44727
-27.0516 -28.5124 -2.40067
-26.7529 -28.5968 -2.36306
-26.2385 -28.9784 -2.44985
-27.2685 -28.9297 -2.6926
-26.9245 -28.5505 -2.3537
-27.5904 -28.811 -2.68147
-27.0647 -28.5419 -2.38508
-26.2244 -29.0327 -2.43583
-27.5003 -28.7612 -2.59688
-27.1998 -28.5558 -2.45103
-26.2013 -29.0868 -2.43882
-27.0606 -28.5563 -2.34878
-26.9455 -28.5541 -2.33632
-27.3035 -28.6567 -2.44378
-27.2016 -28.6015 -2.39874
-26.4932 -28.8945 -2.36237
-26.1385 -29.2224 -2.45566
-27.5901 -28.86 -2.64724
-26.7159 -28.7462 -2.3357
-26.7162 -28.7866 -2.32802
-26.4447 -28.994 -2.37406
-27.1961 -28.6184 -2.36034
-27.5927 -28.8879 -2.64324
-27.5116 -28.8014 -2.54441
-26.9074 -28.6973 -2.30136
-26.6821 -28.8562 -2.32881
-27.213 -28.6494 -2.33774
-27.0973 -28.6096 -2.2933
-27.0687 -28.6612 -2.28865
-26.6565 -28.9588 -2.31119
-27.641 -28.8647 -2.53818
-27.3221 -28.7146 -2.3546
-27.4204 -28.7634 -2.40365
-27.2106 -28.6865 -2.28968
-26.8593 -28.8684 -2.28546
-27.0614 -28.7427 -2.26337
-27.2145 -28.7093 -2.25584
-26.8471 -28.9319 -2.271
-26.252 -29.5022 -2.38692
-26.2372 -29.5482 -2.38316
-27.5543 -28.8667 -2.40006
-26.5594 -29.2509 -2.3086
-27.6517 -28.9075 -2.44815
-27.2124 -28.7602 -2.2501
-27.0123 -28.9053 -2.25039
-26.5184 -29.3652 -2.31362
-27.008 -28.9635 -2.24547
-27.7615 -29.0589 -2.5284
-27.7753 -29.0412 -2.49293
-27.5613 -28.9029 -2.34452
-27.1884 -28.8908 -2.23047
-27.7858 -29.0166 -2.49793
-26.7569 -29.3017 -2.26418
-27.7838 -29.0509 -2.47849
-27.3586 -28.8032 -2.21424
-27.8038 -29.0251 -2.44668
-27.5923 -28.9167 -2.34783
-27.1469 -29.0087 -2.23548
-26.6453 -29.5195 -2.31156
-27.5969 -28.9212 -2.29
-27.1445 -29.0713 -2.22703
-27.6882 -28.9602 -2.34226
-27.3379 -28.9286 -2.21309
-27.4984 -28.9057 -2.19961
-26.5436 -29.8281 -2.32579
-27.5051 -28.9397 -2.18979
-27.8366 -29.0768 -2.34991
-27.8424 -29.0998 -2.33579
-27.4996 -28.9924 -2.13417
-27.5043 -29.0067 -2.10498
-27.8796 -29.0724 -2.25553
-27.7932 -28.9732 -2.15931
-27.5455 -29.0497 -2.0412
-27.818 -28.9781 -2.10542
-27.8168 -29.0161 -2.0965
-27.8034 -29.0479 -2.10114
-27.7524 -29.2946 -1.88519
-27.019 -30.2321 -1.92238
-27.7474 -29.3515 -1.8375
-27.3058 -29.9929 -1.841
-27.2899 -30.0385 -1.83831
-27.2723 -30.1142 -1.84144
-27.8929 -29.4607 -1.84182
-27.5537 -29.7586 -1.79891
-27.5157 -29.8044 -1.80605
-27.2373 -30.2728 -1.84435
-27.7385 -29.5773 -1.78717
-27.5216 -29.8596 -1.79556
-27.7406 -29.6536 -1.78989
-27.4946 -29.9696 -1.79205
-27.7293 -29.6901 -1.77159
-27.4836 -30.0927 -1.78748
-27.9165 -29.5594 -1.76421
-27.4716 -30.1598 -1.78727
-27.7313 -29.7699 -1.74514
-28.0516 -29.6048 -1.79052
-27.9005 -29.5945 -1.7596
-27.9175 -29.649 -1.75314
-27.6983 -29.9947 -1.75882
-27.414 -30.4414 -1.7993
-27.9092 -29.7111 -1.75128
-28.0514 -29.6421 -1.79145
-27.6488 -30.0889 -1.76027
-27.6329 -30.3401 -1.76519
-28.0649 -29.7502 -1.73573
-27.8557 -30.2142 -1.73946
-27.8109 -30.4063 -1.7534
-27.7857 -30.5465 -1.76751
-27.9955 -30.4048 -1.74509
-29.1787 -30.4826 -2.13085
-27.6891 -28.9511 -2.44118
-28.5662 -29.8276 -3.02977
-27.0973 -28.4226 -2.90466
-28.8179 -29.952 -2.86327
-27.7947 -29.0779 -2.97176
-27.0049 -28.5052 -3.14764
-26.8202 -28.3639 -3.01032
-28.2266 -29.494 -2.34792
-27.3048 -28.5607 -3.05542
-27.3183 -28.6096 -3.04494
-26.8449 -28.2729 -2.74723
-27.0959 -28.419 -2.75029
-26.417 -28.5237 -2.6817
-27.202 -28.5105 -2.78911
-26.5239 -28.4291 -2.59041
-26.4789 -28.5053 -2.59462
-27.4412 -29.0421 -3.123
-27.5144 -28.9047 -3.03164
-27.2054 -28.5338 -2.68872
-27.016 -28.6182 -2.69282
-26.4834 -28.5501 -2.54525
-27.4731 -28.7976 -2.89131
-26.9677 -28.71 -2.72669
-27.6208 -29.0396 -3.05937
-26.6934 -28.5177 -2.4976
-27.6512 -29.0061 -3.00449
-27.6937 -28.9512 -2.94459
-27.3891 -28.9933 -2.92487
-26.4988 -28.5956 -2.47739
-27.611 -28.8715 -2.8579
-27.4018 -28.9847 -2.90303
-27.7179 -28.9595 -2.89669
-27.2126 -28.6066 -2.60745
-27.6097 -28.904 -2.84565
-27.491 -28.8588 -2.79803
-27.1459 -28.7511 -2.6385
-27.2927 -28.9923 -2.79897
-27.206 -28.5229 -2.49738
-27.8049 -29.0562 -2.94056
-27.2118 -28.9095 -2.70657
-27.8487 -29.2997 -3.07248
-27.8275 -29.0607 -2.90211
-27.6593 -28.9118 -2.74808
-27.4624 -28.7457 -2.62524
-26.9589 -28.5131 -2.36008
-26.7136 -28.6023 -2.38208
-27.897 -29.2157 -2.99979
-27.7398 -28.9761 -2.81831
-27.4736 -28.7531 -2.59621
-27.563 -28.8526 -2.64518
-27.9438 -29.161 -2.8969
-27.8471 -29.0919 -2.84182
-27.4801 -28.7815 -2.5619
-27.8647 -29.1006 -2.80095
-27.7602 -29.0043 -2.70822
-27.6916 -28.919 -2.63639
-27.9611 -29.1862 -2.84303
-27.7915 -29.015 -2.69318
-27.8588 -29.1029 -2.7546
-27.6993 -28.9251 -2.61528
-28.1255 -29.4692 -3.04205
-27.9676 -29.1921 -2.80077
-27.897 -29.1055 -2.7399
-27.8009 -29.0169 -2.64098
-27.6166 -28.8974 -2.54831
-27.062 -28.7035 -2.27724
-28.1577 -29.4183 -2.98133
-28.1821 -29.3708 -2.93983
-27.7147 -28.9596 -2.54893
-27.5212 -28.838 -2.43703
-28.195 -29.3592 -2.89331
-28.2755 -29.5597 -3.0072
-27.9142 -29.1417 -2.69022
-26.9975 -28.8623 -2.25875
-28.2879 -29.5168 -2.98427
-27.9357 -29.1215 -2.61096
-27.4447 -28.8279 -2.30394
-26.2852 -29.4485 -2.37578
-28.2968 -29.4525 -2.89308
-27.1711 -28.8532 -2.23951
-26.2229 -29.5443 -2.4026
-26.8874 -29.0735 -2.27319
-28.0486 -29.2188 -2.63499
-27.8521 -29.0773 -2.50964
-28.3415 -29.4659 -2.86336
-28.1448 -29.3086 -2.74082
-28.1448 -29.3205 -2.69513
-28.0607 -29.2222 -2.59977
-27.7709 -29.0247 -2.40419
-26.7842 -29.2838 -2.28623
-28.151 -29.3446 -2.68525
-27.8707 -29.1071 -2.44815
-27.4686 -28.891 -2.24145
-26.7568 -29.3458 -2.28486
-28.0604 -29.2482 -2.59092
-27.4714 -28.9091 -2.19511
-28.2591 -29.4203 -2.69755
-27.7784 -29.0499 -2.36736
-26.7567 -29.3694 -2.26613
-27.9711 -29.1916 -2.49657
-27.6661 -29.0145 -2.30477
-27.0591 -29.1464 -2.20591
-28.1652 -29.3564 -2.59491
-27.6724 -29.054 -2.29688
-27.9994 -29.2138 -2.44992
-26.6264 -29.6086 -2.30399
-28.1885 -29.3504 -2.59665
-28.086 -29.2757 -2.53706
-27.5949 -28.9639 -2.20452
-26.5804 -29.694 -2.3166
-28.2918 -29.4544 -2.64285
-28.1021 -29.3018 -2.49936
-27.9091 -29.1493 -2.39325
-28.2959 -29.4192 -2.63411
-28.1927 -29.3727 -2.5487
-27.9085 -29.1603 -2.34873
-28.101 -29.2802 -2.47919
-27.7046 -29.0559 -2.2313
-27.599 -29.0222 -2.15826
-28.0173 -29.2457 -2.39445
-27.8537 -28.9982 -2.20459
-27.6975 -29.084 -2.21471
-27.7183 -29.0662 -2.18445
-27.4737 -29.0458 -2.10682
-28.018 -29.2581 -2.35351
-27.9215 -29.203 -2.29612
-27.6147 -29.0601 -2.10366
-28.1202 -29.3381 -2.39874
-27.7581 -29.0549 -2.11303
-28.3438 -29.4981 -2.4938
-28.1496 -29.3569 -2.39049
-28.0543 -29.3098 -2.29486
-27.9217 -29.2582 -2.24884
-28.2498 -29.4295 -2.40282
-27.7223 -29.196 -2.10064
-28.2545 -29.4574 -2.39306
-28.3531 -29.5152 -2.44809
-27.6267 -29.1405 -2.049
-28.4447 -29.6665 -2.53974
-28.2755 -29.4225 -2.3484
-28.0543 -29.3575 -2.24441
-27.6568 -29.1631 -2.00206
-28.4624 -29.6502 -2.50328
-28.3447 -29.5117 -2.40303
-28.362 -29.5418 -2.39383
-28.2541 -29.4551 -2.35267
-28.0679 -29.3626 -2.21352
-28.161 -29.4249 -2.25727
-28.49 -29.622 -2.44797
-28.2925 -29.5111 -2.29494
-28.1813 -29.4222 -2.24016
-28.3927 -29.5717 -2.3548
-28.502 -29.6263 -2.41908
-28.1845 -29.4618 -2.21679
-27.6623 -29.2627 -1.90234
-28.3958 -29.5883 -2.34059
-28.4089 -29.6107 -2.3014
-28.3078 -29.5639 -2.21345
-28.5117 -29.6868 -2.34076
-28.4114 -29.6372 -2.28064
-28.5356 -29.6862 -2.32655
-28.3047 -29.6044 -2.1924
-26.9519 -30.1661 -1.9739
-28.5372 -29.7127 -2.29603
-27.7786 -29.3924 -1.87866
-28.4386 -29.6472 -2.23006
-28.3106 -29.6247 -2.16333
-27.79 -29.4064 -1.84795
-28.5433 -29.7548 -2.24831
-28.3434 -29.66 -2.13497
-27.7961 -29.4331 -1.82404
-27.6093 -29.6075 -1.81144
-27.2933 -29.9356 -1.84428
-27.7976 -29.5463 -1.787
-27.7436 -29.6946 -1.77765
-28.2698 -29.6699 -1.96136
-27.9352 -29.5657 -1.78036
-27.4631 -30.0406 -1.79276
-28.3829 -29.7268 -2.01345
-27.9523 -29.5453 -1.7591
-27.3858 -30.2386 -1.81141
-28.2763 -29.7365 -1.92403
-28.2599 -29.7476 -1.89143
-28.2812 -29.7883 -1.89559
-27.8681 -29.8888 -1.74465
-28.0615 -30.9549 -2.25254
-28.1936 -29.7473 -1.78777
-28.3121 -29.8331 -1.82066
-28.2049 -29.8039 -1.74427
-28.3184 -29.8606 -1.79924
-28.0086 -30.1025 -1.72925
-28.2054 -29.9446 -1.7231
-28.1612 -30.0687 -1.7222
-28.3584 -29.9586 -1.74458
-28.1534 -30.1604 -1.73169
-28.1221 -30.231 -1.73133
-28.3388 -29.9973 -1.71584
-28.4505 -30.0009 -1.75745
-28.4693 -30.0601 -1.75071
-28.2976 -30.1743 -1.73112
-28.2831 -30.2465 -1.73368
-28.4649 -30.1048 -1.74011
-28.2277 -30.4551 -1.75107
-28.7067 -30.1881 -1.83554
-28.6032 -30.2215 -1.7658
-28.3616 -30.66 -1.78384
-28.7055 -30.6154 -1.8327
-28.6471 -30.7342 -1.83472
-27.3859 -28.8433 -2.21948
-29.1225 -31.1917 -2.78918
-28.7316 -29.8211 -2.87655
-26.3054 -29.1817 -2.38092
-27.2764 -29.0114 -2.9851
-29.0874 -30.3621 -2.12683
-28.6021 -29.7541 -2.39425
-28.9086 -30.0592 -2.3977
-29.2994 -30.4824 -2.74908
-26.8527 -28.3474 -2.97258
-27.1433 -28.4153 -2.99442
-27.223 -28.5319 -3.02722
-27.2395 -28.5426 -2.9875
-26.8954 -28.3448 -2.62897
-27.0503 -28.3645 -2.65262
-27.0417 -28.3896 -2.63863
-26.7296 -28.3886 -2.57318
-27.1307 -28.484 -2.67078
-27.5711 -28.8501 -2.9706
-26.367 -28.5938 -2.59233
-27.4474 -28.6975 -2.79142
-27.3443 -28.6331 -2.73217
-27.0458 -28.6112 -2.67928
-26.7078 -28.4769 -2.51298
-26.2878 -28.6777 -2.61209
-27.3613 -28.6446 -2.68263
-27.2033 -28.5185 -2.53169
-27.5244 -28.8109 -2.79702
-26.933 -28.4887 -2.44019
-26.3314 -28.7033 -2.52655
-26.3508 -28.7069 -2.49661
-27.2589 -28.9795 -2.82463
-27.7133 -28.9848 -2.87457
-27.6478 -28.9027 -2.79427
-27.417 -28.8003 -2.68402
-26.2905 -28.7891 -2.49264
-27.9884 -30.9937 -2.54988
-27.8564 -29.2089 -3.02175
-27.7439 -28.9892 -2.83755
-27.3415 -28.6573 -2.46124
-27.9575 -29.3233 -3.04166
-27.6764 -28.9369 -2.68977
-27.4174 -28.7394 -2.49207
-26.9321 -28.5997 -2.32967
-26.6092 -28.7486 -2.37304
-28.0033 -29.277 -2.9776
-28.0211 -29.2675 -2.94616
-27.3479 -28.7042 -2.3946
-27.0928 -28.6626 -2.28883
-27.24 -28.6758 -2.3112
-28.1437 -29.3573 -2.93926
-27.8141 -29.0414 -2.65618
-26.4513 -28.9734 -2.3644
-26.7764 -28.8419 -2.31255
-28.1559 -29.3551 -2.90064
-26.6951 -28.9577 -2.31402
-28.1633 -29.3819 -2.87336
-27.754 -28.9963 -2.54628
-28.1716 -29.3932 -2.8451
-27.4716 -28.8334 -2.32464
-28.3436 -29.5925 -2.99329
-28.3871 -29.5284 -2.93283
-28.0226 -29.2219 -2.66031
-28.2916 -29.4603 -2.85563
-26.867 -29.028 -2.26908
-26.5093 -29.2357 -2.32455
-27.4916 -28.8594 -2.28942
-28.3998 -29.5489 -2.88929
-27.1117 -28.9451 -2.23051
-28.4469 -29.6969 -2.99492
-28.2183 -29.418 -2.74429
-26.7683 -29.168 -2.27937
-28.49 -29.652 -2.93767
-28.1293 -29.3299 -2.66455
-28.4094 -29.5698 -2.84552
-28.2196 -29.4312 -2.71309
-28.3248 -29.4998 -2.76007
-28.2296 -29.4265 -2.69463
-28.4259 -29.5765 -2.80951
-28.2614 -29.4398 -2.64941
-26.5383 -29.4897 -2.30782
-28.4362 -29.5774 -2.78513
-28.0744 -29.2801 -2.51138
-28.6171 -29.7437 -2.90246
-28.5209 -29.6905 -2.83996
-26.942 -29.2619 -2.21024
-26.3531 -29.7076 -2.35747
-28.6384 -29.7453 -2.88346
-28.4516 -29.5764 -2.75011
-28.7074 -29.9162 -2.99992
-28.3629 -29.5144 -2.63933
-28.2741 -29.458 -2.58657
-27.9001 -29.0016 -2.22232
-28.744 -29.8594 -2.93601
-28.466 -29.6121 -2.69768
-27.9178 -29.1855 -2.32578
-28.9192 -30.1198 -3.13185
-28.6404 -29.7723 -2.85044
-28.2774 -29.4638 -2.56602
-28.968 -30.0159 -3.04333
-28.6452 -29.7921 -2.83108
-28.3793 -29.5317 -2.61504
-26.6558 -29.6649 -2.26619
-27.6383 -29.0631 -2.09572
-27.4526 -29.0901 -2.0893
-28.8021 -30.1142 -3.04422
-26.5866 -29.7582 -2.28367
-28.653 -29.7998 -2.79528
-28.9796 -30.0155 -3.01208
-28.2969 -29.4576 -2.49825
-28.9862 -30.023 -2.99121
-28.4986 -29.6171 -2.60704
-28.3118 -29.4909 -2.49548
-28.1249 -29.3496 -2.35964
-27.769 -29.087 -2.11702
-28.806 -30.1018 -2.99322
-27.8134 -29.2579 -2.19608
-28.8102 -30.1701 -2.99769
-28.3234 -29.4997 -2.45231
-28.603 -29.7461 -2.64756
-28.5085 -29.6382 -2.58463
-28.8124 -30.1902 -2.98315
-28.8169 -30.1939 -2.96992
-28.6993 -29.8197 -2.69413
-28.5141 -29.6548 -2.54469
-28.4231 -29.5859 -2.49162
-29.006 -30.0587 -2.89311
-28.7944 -29.906 -2.74792
-28.6163 -29.747 -2.58425
-28.802 -29.9346 -2.73894
-28.5358 -29.665 -2.50743
-28.4476 -29.61 -2.44871
-28.8905 -30.0646 -2.84045
-28.9054 -30.0685 -2.80172
-28.3586 -29.5549 -2.34595
-29.0168 -30.1057 -2.84745
-28.5556 -29.7017 -2.49249
-28.7413 -29.8524 -2.59268
-28.556 -29.7107 -2.44668
-29.0505 -30.1544 -2.84604
-28.9131 -30.0918 -2.77279
-28.8442 -29.9575 -2.64332
-27.6653 -29.223 -1.9145
-28.9172 -30.1168 -2.75264
-28.3728 -29.6004 -2.29229
-28.4647 -29.6546 -2.34747
-28.5659 -29.7209 -2.40836
-28.9167 -30.1532 -2.73915
-27.7555 -29.3369 -1.93412
-28.8538 -29.9846 -2.59597
-28.5718 -29.7379 -2.38338
-28.4719 -29.6729 -2.31737
-28.3706 -29.6184 -2.25096
-28.3755 -29.6508 -2.24248
-28.5777 -29.759 -2.36416
-28.9585 -30.1685 -2.68992
-28.8573 -29.9942 -2.54587
-28.9895 -30.0616 -2.59426
-28.6997 -29.8537 -2.39345
-28.3739 -29.6839 -2.22518
-28.8974 -29.9985 -2.5424
-28.788 -29.9227 -2.44767
-28.4938 -29.7223 -2.25121
-28.3741 -29.7064 -2.21087
-28.6084 -29.8021 -2.30017
-28.3031 -29.6519 -2.14096
-28.9033 -30.0169 -2.49562
-28.6975 -29.8689 -2.35236
-28.3981 -29.7065 -2.19501
-28.9993 -30.0881 -2.53969
-28.7936 -29.942 -2.43739
-28.5016 -29.765 -2.19756
-28.7151 -29.8889 -2.33463
-28.604 -29.8221 -2.25918
-27.7379 -29.5139 -1.82129
-27.7113 -29.5536 -1.8047
-29.008 -30.1083 -2.50375
-28.3132 -29.7052 -2.05186
-27.4132 -29.8134 -1.83062
-29.0156 -30.1414 -2.48615
-29.0385 -30.103 -2.47128
-29.1492 -30.2225 -2.5368
-28.7178 -29.9505 -2.24362
-28.3113 -29.7418 -2.02214
-27.6424 -29.743 -1.79714
-27.2194 -30.15 -1.86496
-28.8477 -30.0049 -2.29974
-28.9617 -30.0883 -2.387
-28.7424 -29.958 -2.24256
-28.0105 -29.6086 -1.79984
-28.9423 -30.0999 -2.3436
-27.8423 -29.6978 -1.77582
-29.0566 -30.1616 -2.39683
-28.739 -29.9794 -2.21997
-28.0398 -30.952 -2.47118
-28.021 -29.6466 -1.78593
-28.8504 -30.0374 -2.27865
-28.3466 -29.7926 -1.94264
-27.4637 -30.1089 -1.8021
-27.7915 -29.8322 -1.7599
-28.0636 -30.9829 -2.40719
-28.2554 -29.7605 -1.84798
-28.1462 -29.7133 -1.78886
-28.084 -30.9573 -2.3812
-27.744 -29.9413 -1.75771
-29.197 -30.2982 -2.43726
-28.3452 -29.8453 -1.88964
-28.1448 -29.7397 -1.78071
-29.1889 -30.3156 -2.40076
-29.082 -30.2122 -2.3364
-27.9607 -29.8179 -1.73841
-28.2529 -29.8139 -1.79404
-28.1528 -29.7673 -1.74037
-27.9479 -29.8757 -1.74276
-27.9209 -29.9393 -1.7384
-28.868 -30.1247 -2.14843
-28.2453 -29.8423 -1.79103
-28.137 -29.7989 -1.73662
-27.8954 -29.9993 -1.74443
-27.5112 -30.4062 -1.79848
-28.998 -30.2049 -2.23814
-28.8898 -30.1194 -2.15194
-29.0025 -30.212 -2.2063
-28.8898 -30.1483 -2.14018
-28.0988 -29.899 -1.72774
-29.1042 -30.2897 -2.28656
-27.8021 -30.2111 -1.75307
-29.1087 -30.277 -2.25759
-28.8874 -30.1843 -2.13065
-28.0619 -30.0078 -1.73619
-29.1113 -30.3155 -2.24723
-28.3621 -29.9207 -1.79552
-27.7088 -30.4106 -1.77032
-28.9008 -30.2083 -2.09388
-28.2476 -29.9021 -1.73406
-28.2489 -29.9333 -1.71466
-28.7776 -30.2203 -2.03362
-29.2211 -30.4423 -2.29113
-28.1991 -30.0839 -1.73049
-28.8092 -30.1859 -1.98663
-27.8424 -30.5238 -1.7712
-27.7949 -30.651 -1.7809
-29.1412 -30.3648 -2.16234
-28.8007 -30.1902 -1.94165
-28.4847 -30.0921 -1.78011
-28.5822 -30.1696 -1.84487
-28.3364 -30.1433 -1.7354
-29.1425 -30.3997 -2.1372
-29.0009 -30.4375 -2.11492
-28.8316 -30.1947 -1.93932
-28.4998 -30.0837 -1.75743
-28.0104 -30.551 -1.76997
-28.6535 -31.0916 -2.24683
-28.8237 -30.2368 -1.9369
-28.4957 -30.1522 -1.74399
-29.0424 -30.3657 -2.05535
-28.7334 -30.2061 -1.83257
-29.0594 -30.405 -2.03885
-28.8377 -30.2621 -1.89954
-28.457 -30.3001 -1.74352
-28.9501 -30.3414 -1.94567
-29.0582 -30.4062 -1.9946
-28.3529 -30.5529 -1.77069
-29.0702 -30.4518 -1.97205
-28.4933 -30.6046 -1.79309
-29.0613 -30.4463 -1.94436
-28.7124 -30.4539 -1.79025
-28.9524 -30.4687 -1.89508
-28.6681 -30.5406 -1.80388
-28.9404 -30.5524 -1.8867
-28.9242 -30.6039 -1.90062
-28.5706 -30.8535 -1.83544
-28.7903 -30.6158 -1.83613
-29.3419 -30.334 -2.98439
-28.9364 -31.1071 -2.16904
-28.583 -29.7231 -2.86439
-26.9757 -28.3786 -2.97808
-27.1334 -28.4312 -2.97947
-26.8989 -28.457 -2.99092
-26.6658 -28.3406 -2.87334
-27.2153 -28.5433 -3.0135
-26.7691 -28.3045 -2.7943
-26.9002 -28.4961 -2.948
-26.5835 -28.3419 -2.70885
-26.655 -28.3177 -2.6571
-27.1869 -28.5314 -2.80407
-27.0809 -28.3985 -2.57883
-26.6586 -28.4156 -2.54847
-27.5187 -28.8998 -3.00953
-27.0896 -28.4157 -2.55031
-27.3245 -28.6568 -2.74576
-27.4574 -28.8392 -2.89378
-27.5797 -29.0496 -3.04833
-27.2721 -28.5887 -2.63321
-26.9246 -28.6935 -2.70856
-27.1053 -28.4553 -2.48977
-27.6798 -28.9706 -2.96741
-27.3839 -28.6562 -2.66592
-26.6408 -28.5033 -2.4846
-27.651 -29.1781 -3.09298
-27.2898 -28.6044 -2.59374
-27.7779 -29.0789 -2.98008
-27.2089 -28.9815 -2.83402
-27.5762 -28.8353 -2.72381
-27.5937 -28.8557 -2.69875
-27.3345 -28.6264 -2.51278
-26.6047 -28.6089 -2.40523
-27.6796 -28.9358 -2.72994
-27.5145 -28.7951 -2.58669
-27.4361 -28.717 -2.53193
-27.6941 -28.9409 -2.69952
-27.7894 -29.0169 -2.74523
-27.4427 -28.7502 -2.48864
-27.349 -28.688 -2.42947
-27.2414 -28.6409 -2.37057
-27.5504 -28.8431 -2.4917
-26.806 -28.7125 -2.31626
-28.1495 -29.5443 -3.05897
-27.8442 -29.0528 -2.62971
-27.1036 -28.6747 -2.25842
-27.0853 -28.698 -2.25535
-27.943 -29.1519 -2.65021
-27.3822 -28.7671 -2.30402
-26.5809 -28.938 -2.32983
-27.9635 -29.1225 -2.62916
-27.4867 -28.8426 -2.33365
-26.5037 -29.011 -2.33916
-27.5843 -28.9021 -2.38358
-26.9705 -28.8286 -2.25246
-28.3668 -29.5494 -2.93736
-27.7032 -28.9875 -2.38343
-27.9874 -29.177 -2.53723
-26.6613 -29.1405 -2.28658
-28.0025 -29.2094 -2.49312
-27.5843 -28.9999 -2.28803
-28.4085 -29.5919 -2.83286
-28.4183 -29.5963 -2.79704
-26.9057 -29.1706 -2.26004
-27.9389 -29.1708 -2.38326
-26.7851 -29.2724 -2.26796
-27.9321 -29.171 -2.36877
-27.7851 -29.0177 -2.23455
-27.9471 -29.1955 -2.34407
-26.6992 -29.3652 -2.27597
-29.0939 -30.1369 -3.19859
-26.6617 -29.4084 -2.2766
-29.0101 -30.0614 -3.09364
-28.3849 -29.5254 -2.64702
-27.9519 -29.2169 -2.29526
-28.3935 -29.526 -2.61027
-27.8174 -29.1505 -2.25516
-29.1315 -30.1147 -3.13704
-28.3188 -29.4847 -2.53932
-29.2177 -30.2478 -3.20103
-27.8718 -29.0193 -2.10704
-28.0605 -29.294 -2.33965
-29.1377 -30.1638 -3.09723
-28.8221 -29.9497 -2.90145
-27.6146 -29.1451 -2.09149
-28.9415 -30.0224 -2.94973
-27.8318 -29.0841 -2.10147
-28.9458 -30.0399 -2.93895
-28.845 -29.9487 -2.89011
-27.745 -29.1808 -2.12981
-29.1422 -30.1773 -3.05112
