-29.2116 -2.84848 -2.17679
-29.5718 -2.81485 -3.15495
-29.0366 -2.44922 -1.88308
-31.2508 -1.35992 -2.9521
-28.4607 -1.70401 -2.8177
-29.0871 -2.49744 -1.92416
-29.0468 -2.85995 -2.35571
-28.3581 -2.31915 -2.80053
-28.2021 -2.04532 -2.62988
-29.2164 -1.0174 -3.03402
-28.4514 -2.20093 -2.37212
-28.2631 -2.11288 -2.90835
-28.3079 -1.95663 -3.13968
-29.0488 -1.68143 -1.83565
-28.6725 -1.52933 -3.04079
-31.1133 -1.43256 -3.28172
-29.4428 -2.92865 -3.14685
-30.996 -1.56598 -2.64623
-28.3325 -2.2048 -2.69884
-29.0852 -3.06818 -2.86604
-29.2334 -2.82324 -2.25679
-28.9705 -2.37033 -2.0091
-29.2417 -3.09744 -2.63404
-29.0699 -1.18039 -2.93098
-28.7793 -2.13007 -1.84763
-29.0524 -1.23419 -2.34656
-30.825 -1.79605 -2.25306
-29.3421 -2.8255 -2.18792
-28.409 -1.74387 -2.54206
-29.3273 -2.99539 -3.25339
-29.3564 -2.76633 -2.01085
-28.2677 -1.84906 -3.21654
-29.0849 -1.25015 -2.30094
-31.0473 -1.58603 -2.78638
-28.4815 -2.10388 -3.08806
-29.9588 -2.40976 -2.35773
-28.8942 -1.75058 -1.86284
-28.1712 -1.96741 -2.85061
-30.8675 -1.70239 -2.52131
-28.5556 -2.3833 -2.50657
-28.4481 -2.18683 -2.54459
-28.266 -1.92319 -3.08585
-28.3968 -2.14514 -2.9985
-29.1044 -2.33911 -1.89693
-28.5469 -1.83035 -2.11636
-29.6437 -2.75174 -2.44523
-28.9449 -2.84729 -2.54271
-29.7813 -2.39124 -1.87997
-28.3053 -2.13531 -2.6981
-28.6875 -1.9899 -1.92253
-29.3104 -2.80872 -2.0571
-29.5353 -2.34732 -1.86221
-28.3153 -2.02026 -2.514
-29.0041 -1.9248 -1.80632
-30.0756 -2.35831 -2.96976
-30.1645 -2.30945 -2.89623
-28.2815 -1.84399 -2.79046
-28.4009 -1.75668 -2.85184
-28.5156 -1.67062 -2.4786
-29.2141 -2.59448 -1.9608
-29.324 -2.4534 -1.88134
-28.2452 -1.96835 -2.60639
-29.1719 -1.05972 -3.04743
-29.05 -1.29861 -2.2416
-28.4306 -2.02612 -2.37714
-30.502 -1.99881 -2.96019
-28.3606 -1.97888 -2.40766
-29.4882 -2.88141 -2.51101
-28.343 -2.00983 -2.48458
-28.3693 -2.05606 -2.44022
-28.5528 -1.94498 -2.10028
-28.8461 -2.05264 -1.83157
-28.5331 -1.63699 -2.52645
-30.3086 -2.17398 -2.92789
-31.3356 -1.31873 -3.11281
-29.241 -2.83356 -2.13179
-28.8496 -1.33652 -2.73861
-28.7188 -2.60114 -2.62568
-30.1937 -2.24948 -3.07629
-29.0766 -2.47699 -1.8327
-28.7432 -2.12292 -1.92658
-30.7335 -1.74234 -3.29411
-28.3656 -2.00922 -2.45156
-28.595 -1.90271 -2.0546
-28.4008 -2.01779 -2.41216
-28.6441 -2.50668 -2.50311
-29.9358 -2.53748 -2.76803
-30.1949 -2.3082 -2.85645
-28.2405 -1.92645 -2.56308
-30.6818 -1.84219 -2.77682
-28.5045 -1.66214 -2.91799
-28.6739 -1.50116 -3.08817
-28.9131 -2.31497 -1.96929
-29.1736 -3.09097 -2.64381
-29.7061 -2.71637 -2.94777
-29.139 -1.50525 -1.85509
-30.0345 -2.3588 -3.09982
-29.1475 -2.466 -1.86663
-29.0057 -2.36548 -1.92717
-28.9524 -2.00412 -1.84515
-28.3812 -2.05359 -2.39491
-29.1222 -3.11142 -2.74155
-28.5571 -1.63766 -2.87663
-29.8484 -2.55753 -2.38502
-28.4373 -1.78104 -2.45813
-28.4767 -1.86768 -2.28548
-28.9988 -1.207 -2.85788
-30.6376 -1.77499 -3.19616
-29.9084 -2.52618 -2.81432
-29.1001 -2.53479 -1.87176
-28.8069 -2.19284 -1.84719
-28.7438 -1.78995 -1.93236
-29.4137 -2.91064 -2.50214
-28.4137 -1.71323 -2.58859
-28.9918 -2.81573 -2.48511
-30.1298 -2.297 -2.35732
-31.2604 -1.34912 -2.90359
-29.0969 -1.13022 -2.92229
-28.5544 -2.36078 -2.54527
-29.3474 -2.77472 -2.04393
-28.2966 -2.05359 -2.74205
-28.5292 -2.49207 -2.89154
-29.2941 -3.05289 -2.60285
-30.3429 -2.15936 -2.49334
-29.3685 -2.97211 -3.21505
-29.0281 -3.01346 -2.99674
-28.5092 -1.80331 -2.26014
-28.2753 -1.93506 -2.52894
-30.1606 -2.36893 -2.58602
-29.5395 -2.83237 -2.48756
-28.5106 -2.23526 -2.51049
-29.2622 -2.40909 -1.85892
-31.1353 -1.45679 -3.09016
-28.9206 -2.82108 -2.55518
-29.284 -2.80173 -2.08696
-28.959 -1.25476 -2.80365
-29.5148 -2.82669 -3.26714
-30.8322 -1.80435 -2.36509
-31.2778 -1.35703 -3.15194
-28.2088 -1.90973 -3.08315
-29.9178 -2.48502 -2.37669
-28.1547 -1.93051 -2.76768
-28.6555 -1.50958 -2.5764
-28.5893 -1.50903 -2.71508
-28.8791 -2.18176 -1.86477
-28.5456 -1.62082 -2.94557
-28.2074 -1.88791 -2.64728
-28.8041 -2.16162 -1.84943
-29.5035 -2.65042 -1.96714
-29.1485 -1.11108 -2.49318
-28.6099 -1.88193 -1.99226
-30.9186 -1.63641 -2.98205
-30.796 -1.71005 -2.39871
-29.7962 -2.65228 -2.8729
-28.5191 -1.88699 -3.09024
-30.6723 -1.85397 -2.90325
-28.6427 -1.71042 -2.14357
-28.7909 -1.96115 -1.88748
-29.4313 -2.93182 -2.50239
-29.6543 -2.5007 -1.93353
-29.2929 -2.70682 -2.02078
-29.6889 -2.69003 -2.99119
-30.9886 -1.49881 -3.21138
-28.7272 -2.08011 -1.94202
-28.5219 -1.62378 -3.05902
-28.3154 -2.06049 -2.54042
-29.3646 -2.9342 -2.45287
-28.7543 -2.61554 -2.58689
-30.4883 -2.07294 -2.68304
-28.4472 -1.68002 -3.2241
-28.9643 -2.32199 -1.92818
-28.6706 -2.59567 -2.65479
-30.0571 -2.4299 -2.82291
-28.5045 -2.3526 -2.58459
-28.2304 -2.06876 -2.77478
-28.3678 -2.33865 -2.76038
-30.2345 -2.24219 -2.95549
-29.1019 -2.49643 -1.88016
-29.9934 -2.47208 -2.73838
-28.5472 -1.85767 -2.07158
-28.6919 -1.97174 -3.17197
-28.2227 -1.91968 -3.04102
-29.7593 -2.66321 -2.91516
-28.311 -1.80911 -3.19386
-28.7031 -2.50897 -2.42043
-30.0231 -2.43958 -2.86103
-28.492 -1.61609 -3.173
-29.3747 -2.97156 -2.58477
-29.6748 -2.46326 -1.91166
-29.2603 -2.8013 -2.05807
-29.5006 -2.85898 -2.49958
-28.329 -1.97302 -2.53812
-29.0492 -2.8428 -2.40282
-28.5141 -1.83023 -2.21329
-28.4835 -1.78748 -2.29914
-30.9197 -1.6586 -2.8038
-29.7023 -2.67813 -2.43064
-28.8323 -1.33606 -2.88648
-28.4712 -1.71283 -2.42996
-28.3025 -2.1283 -2.61569
-29.744 -2.65088 -2.40353
-28.5992 -1.96112 -2.03784
-29.4961 -2.84726 -2.45167
-29.2585 -2.80301 -2.0973
-28.3293 -1.8905 -3.23637
-28.3448 -2.21237 -2.99422
-30.7687 -1.77423 -3.0176
-31.0206 -1.55466 -2.95382
-29.9939 -2.43619 -2.39151
-31.4598 -1.10202 -2.90015
-31.0017 -1.43988 -3.27145
-29.4906 -2.88162 -3.1171
-28.5417 -1.57977 -2.61894
-28.3935 -2.27167 -2.78046
-29.1735 -2.54276 -1.93892
-28.3639 -2.30603 -2.73673
-29.3256 -2.81354 -2.14695
-28.4895 -1.86157 -2.17351
-28.178 -1.98801 -2.71003
-30.4562 -2.01593 -2.99998
-28.3627 -1.7612 -3.16427
-28.4473 -2.14587 -2.46364
-29.4266 -0.883698 -3.12001
-29.807 -2.60019 -2.39741
-31.3357 -1.31262 -3.03618
-29.3926 -2.72122 -1.98269
-28.4842 -1.73328 -2.38922
-29.2453 -1.0105 -2.6026
-28.5557 -1.72116 -2.28995
-28.4182 -1.81683 -2.41504
-28.5718 -2.27902 -2.39148
-28.3787 -1.76401 -2.76163
-29.0137 -2.82654 -2.43761
-28.1826 -1.9881 -2.80725
-31.0797 -1.46182 -3.31234
-28.6847 -1.50061 -3.04007
-28.879 -2.25082 -1.94893
-28.8339 -2.23846 -1.9859
-28.7346 -1.71881 -1.9645
-28.2943 -2.01364 -2.56859
-28.2332 -2.00879 -2.60173
-28.2165 -1.98813 -2.64364
-28.1991 -1.95297 -2.68583
-28.1746 -1.95422 -2.74093
-28.2399 -1.87808 -2.82257
-28.31 -1.83047 -2.87558
-28.4135 -1.77151 -2.93428
-28.4133 -1.73981 -2.98534
-28.4083 -1.72107 -3.02437
-28.4906 -1.66882 -3.08084
-28.4999 -1.638 -3.13101
-29.2709 -2.76273 -2.13887
-29.1942 -2.34952 -1.94666
-29.0216 -2.37909 -1.97297
-28.7389 -1.93448 -1.93378
-28.6461 -1.91309 -2.01305
-28.5575 -1.89246 -2.08966
-28.5045 -1.88315 -2.1307
-28.4652 -1.76898 -2.33907
-28.4152 -2.17081 -2.58675
-28.3522 -2.15872 -2.60073
-28.3227 -2.15494 -2.65646
-28.543 -1.60623 -2.57343
-28.5277 -2.4166 -3.02385
-28.5772 -1.53912 -2.66997
-28.2219 -2.05466 -2.8405
-28.2041 -2.04669 -2.89889
-28.6697 -1.45239 -2.7707
-28.1997 -1.99741 -2.94722
-28.7433 -1.39655 -2.82852
-28.1913 -2.00189 -2.98333
-28.9487 -1.26459 -2.94933
-28.2263 -1.914 -3.12135
-28.255 -1.87933 -3.16892
-29.0962 -1.1915 -2.39116
-29.8606 -2.57407 -2.84375
-29.2329 -2.54865 -1.90109
-29.1048 -2.54053 -1.97553
-29.2265 -2.87656 -2.24789
-29.1969 -2.8602 -2.28794
-28.9059 -2.13022 -1.86486
-28.7906 -2.12054 -1.94135
-29.0406 -1.51819 -1.89093
-28.438 -2.02371 -2.29018
-29.1041 -1.30234 -2.19883
-28.3758 -1.99759 -2.36795
-28.4599 -2.34558 -2.61937
-28.4192 -2.3342 -2.6598
-28.3344 -1.96164 -2.45107
-28.4093 -2.31686 -2.69458
-28.3226 -1.94485 -2.48604
-29.1169 -1.1503 -2.4469
-28.368 -2.24332 -2.84281
-28.2076 -1.91406 -2.60267
-29.1853 -1.06607 -2.54605
-28.3442 -2.21445 -2.90546
-28.3146 -1.81613 -2.7089
-29.2835 -0.964569 -2.65636
-28.3413 -2.19162 -2.94686
-28.6291 -1.55313 -2.98119
-30.8895 -1.86771 -2.40225
-29.3064 -2.71222 -1.99372
-29.5681 -2.14496 -1.86379
-29.2473 -2.25479 -1.87254
-28.9854 -2.34042 -1.88623
-28.8557 -1.8519 -1.88551
-28.7201 -1.88635 -1.9154
-28.6343 -1.8999 -1.94776
-28.5745 -1.87244 -2.03015
-28.5481 -1.80554 -2.15616
-28.5645 -1.76865 -2.206
-28.5647 -1.74274 -2.24854
-28.4503 -2.18088 -2.46659
-28.5699 -1.68854 -2.33463
-28.3968 -2.15234 -2.54737
-28.566 -1.66125 -2.38228
-28.5871 -1.62527 -2.42826
-28.6339 -1.57523 -2.48092
-28.3126 -2.10654 -2.65979
-28.6564 -1.53836 -2.52761
-28.7036 -1.46182 -2.62472
-28.7638 -1.40472 -2.68077
-28.2334 -2.05069 -2.82254
-28.2128 -2.02951 -2.86414
-28.2054 -2.01187 -2.90731
-28.2113 -1.95172 -2.99461
-29.2134 -1.04568 -2.98766
-28.2806 -1.8512 -3.13955
-28.3396 -1.77087 -3.24271
-28.7146 -2.54803 -2.38197
-29.3208 -2.45728 -1.93745
-29.1351 -2.51257 -1.96581
-29.2986 -2.82108 -2.22126
-28.965 -2.08008 -1.91754
-28.7956 -2.13559 -1.93165
-29.1179 -1.43954 -1.96413
-28.6717 -2.47195 -2.33198
-28.7075 -2.42664 -2.38391
-28.5873 -2.38242 -2.53788
-28.5521 -2.37332 -2.57673
-28.4942 -2.35254 -2.65097
-28.4518 -2.34738 -2.68839
-28.313 -1.95782 -2.57518
-29.1478 -1.08218 -2.5215
-28.2439 -1.944 -2.64843
-28.3527 -2.24567 -2.93095
-28.2022 -1.91284 -2.7314
-29.4616 -2.63696 -1.94597
-28.9772 -2.35461 -1.96556
-28.6829 -1.96603 -1.96412
-28.5313 -1.91626 -2.16341
-28.4771 -1.91986 -2.20075
-28.4639 -1.89966 -2.24385
-28.4164 -1.8613 -2.34422
-28.4212 -2.23007 -2.58779
-28.3823 -2.22842 -2.62065
-28.3535 -2.21799 -2.6604
-28.4371 -1.7533 -2.50369
-28.3155 -2.18777 -2.74064
-28.3149 -2.16306 -2.78279
-28.5075 -1.63074 -2.6478
-28.2933 -2.14719 -2.82647
-28.5836 -1.55521 -2.71007
-28.6497 -1.4888 -2.76567
-28.258 -2.09241 -2.94727
-29.137 -1.11032 -2.99198
-28.3027 -1.9848 -3.09544
-28.3147 -1.92749 -3.18439
-29.694 -2.61108 -3.04379
-29.3851 -2.55188 -1.89532
-29.2334 -2.60831 -1.92405
-29.3136 -2.08966 -1.83128
-29.062 -2.21219 -1.84681
-28.7917 -1.7868 -1.8957
-28.6838 -1.79758 -1.97261
-28.6518 -1.76141 -2.05641
-28.6497 -1.73694 -2.09627
-28.6625 -1.66977 -2.1895
-28.6756 -1.63348 -2.23465
-28.683 -1.59732 -2.28458
-28.6731 -1.57431 -2.3293
-28.4024 -2.1481 -2.49833
-28.6774 -1.54364 -2.37359
-28.3797 -2.13461 -2.53936
-28.7431 -1.47018 -2.43068
-28.3303 -2.13831 -2.57568
-28.774 -1.4198 -2.48258
-28.946 -1.27444 -2.55848
-28.9703 -1.23148 -2.60474
-29.4682 -0.804047 -2.83574
-28.2594 -1.85626 -3.09828
-29.1458 -2.54065 -1.90091
-29.281 -2.81451 -2.18234
-28.7905 -2.18674 -1.93738
-28.4007 -2.11255 -2.40825
-28.3947 -2.08951 -2.4496
-28.2487 -2.05255 -2.64371
-28.2001 -2.06232 -2.67433
-28.1836 -2.01291 -2.76723
-28.2201 -1.90237 -2.9067
-30.8428 -1.82874 -2.31987
-28.9306 -2.07013 -1.86451
-28.3229 -2.06573 -2.47663
-28.2073 -1.99515 -2.68884
-28.1697 -1.98254 -2.75769
-28.1664 -1.95486 -2.80294
-30.6107 -1.73651 -2.14997
-29.4064 -2.94849 -3.18137
-29.3154 -2.75919 -2.02514
-29.3904 -2.24289 -1.86969
-29.2649 -2.75586 -2.04096
-29.1624 -2.3978 -1.88281
-28.7812 -2.11145 -1.88434
-28.4248 -2.04883 -2.35469
-29.0022 -2.84592 -2.44011
-29.4667 -2.62921 -1.96234
-29.3957 -2.19284 -1.84271
-29.2041 -2.33139 -1.86178
-28.9821 -2.43719 -1.95972
-28.8177 -2.06354 -1.86198
-30.6543 -1.8967 -2.62561
-30.8693 -1.83847 -2.27729
-29.3283 -2.72638 -1.95763
-30.8216 -1.7778 -2.41335
-29.0215 -2.4252 -1.92683
-28.7551 -2.11417 -1.89272
-31.0488 -1.49506 -3.10458
-29.8267 -2.32343 -1.88285
-29.6078 -2.50479 -1.8895
-29.4592 -2.66199 -1.91717
-30.7956 -1.74899 -2.3483
-29.3479 -2.746 -1.9422
-29.2955 -2.76584 -1.9789
-29.9989 -2.42099 -2.39397
-29.3074 -2.95889 -2.48693
-31.2337 -1.34259 -3.26649
-30.896 -1.61023 -3.28807
-29.2086 -3.08298 -2.6087
-30.0923 -2.38779 -2.66612
-29.2486 -2.77933 -2.09885
-29.0673 -2.49667 -1.91248
-28.8836 -2.09708 -1.81953
-28.7959 -2.15546 -1.88765
-31.1936 -1.42859 -3.0568
-31.1069 -1.44681 -3.1368
-31.0181 -1.50473 -3.16848
-30.7212 -1.83514 -2.59339
-29.7494 -2.41275 -1.88798
-29.4416 -2.70276 -1.9933
-29.412 -2.19238 -1.81624
-30.6487 -1.68777 -2.40965
-29.2468 -2.37515 -1.83498
-29.2358 -2.81543 -2.12508
-29.0614 -2.48996 -1.9461
-31.1931 -1.38959 -2.9384
-28.8526 -2.1427 -1.83585
-29.5596 -2.81186 -2.45351
-30.8516 -1.67542 -3.01833
-29.4037 -2.95166 -2.5379
-29.3125 -3.02353 -2.54629
-29.2645 -3.06412 -2.5834
-29.0106 -2.858 -2.38939
-30.7019 -1.69717 -2.20146
-29.7602 -2.37683 -1.91581
-29.5642 -2.57159 -1.9742
-31.2576 -1.38211 -2.67884
-31.1507 -1.49063 -2.70597
-29.355 -2.79465 -2.02529
-29.2061 -2.41824 -1.84497
-31.0539 -1.56494 -2.73592
-30.0072 -2.40091 -2.35048
-30.9786 -1.62283 -2.7681
-30.7514 -1.79489 -2.86774
-29.5655 -2.80612 -2.49215
-30.561 -1.96643 -2.92057
-29.3362 -3.01035 -2.57055
-30.3518 -2.12329 -3.01424
-30.23 -2.24457 -3.03506
-29.2034 -3.10382 -2.65461
-29.1089 -3.09555 -2.79495
-29.0568 -3.08087 -2.85997
-28.7759 -2.16501 -1.89626
-30.9684 -1.58517 -2.49579
-29.5729 -2.58304 -1.93655
-29.1288 -2.47318 -1.88862
-29.2713 -2.84067 -2.10091
-29.7613 -2.62869 -2.40579
-30.5044 -2.02209 -2.8257
-29.6151 -2.77399 -2.45803
-30.369 -2.12759 -2.89594
-29.4964 -2.86212 -2.52548
-30.2138 -2.22739 -2.99831
-30.1341 -2.30209 -3.02654
-30.0356 -2.40698 -3.04842
-29.2012 -3.11261 -2.68925
-29.1048 -3.09296 -2.82926
-29.0778 -3.08304 -2.8722
-29.0635 -3.06158 -2.91306
-29.0445 -3.04013 -2.95906
-30.8732 -1.79724 -2.42363
-29.68 -2.40939 -1.90646
-29.5662 -2.56738 -1.92785
-30.7814 -1.79199 -2.55283
-29.5175 -2.60254 -1.96507
-30.5719 -1.98187 -2.65634
-30.4389 -2.10599 -2.71859
-30.367 -2.17468 -2.75058
-31.2188 -1.40112 -3.18703
-30.3277 -2.19092 -2.78837
-29.5992 -2.78143 -2.45223
-31.1778 -1.40884 -3.23399
-30.2545 -2.25949 -2.82217
-31.1477 -1.40198 -3.28092
-29.4422 -2.90491 -2.55476
-30.0829 -2.40408 -2.91687
-29.3207 -3.02332 -2.61343
-30.0111 -2.42017 -2.99815
-29.2637 -3.07779 -2.64186
-29.9262 -2.51227 -3.02544
-29.8782 -2.5491 -3.05528
-29.9498 -2.36865 -3.12892
-29.1361 -3.10443 -2.79086
-28.8954 -2.83853 -2.59741
-28.8614 -2.85165 -2.63261
-29.0966 -3.06531 -2.87912
-29.0405 -3.01138 -3.00296
-30.948 -1.65991 -2.86348
-31.1315 -1.45914 -3.02485
-31.3916 -1.28171 -2.83108
-29.5185 -2.57162 -1.91669
-31.1891 -1.41492 -2.9864
-29.7088 -2.66147 -2.33895
-31.0955 -1.45953 -3.07313
-30.2594 -2.26978 -2.6832
-29.6468 -2.72363 -2.37409
-30.2133 -2.30978 -2.71225
-29.6068 -2.75549 -2.40347
-30.1651 -2.33936 -2.75274
-30.1194 -2.3717 -2.78757
-29.9856 -2.45255 -2.90098
-29.9033 -2.50479 -2.96853
-29.8283 -2.59039 -2.99762
-29.7506 -2.65506 -3.04819
-28.9456 -2.8223 -2.51981
-29.7854 -2.4935 -3.13771
-28.8246 -2.84933 -2.66539
-29.5287 -2.84155 -3.19056
-29.4814 -2.87726 -3.22421
-29.4392 -2.91019 -3.25343
-31.0975 -1.55447 -2.74267
-30.418 -2.06314 -2.46258
-30.9997 -1.61642 -2.82737
-30.304 -2.18021 -2.53135
-30.9098 -1.67096 -2.90701
-30.2399 -2.2533 -2.56444
-30.8507 -1.73486 -2.93679
-30.8185 -1.73367 -2.98193
-30.1325 -2.36273 -2.62963
-30.7104 -1.82489 -3.05659
-30.0247 -2.46664 -2.69938
-30.6541 -1.8801 -3.08926
-30.5921 -1.94803 -3.11945
-29.5878 -2.79398 -3.05086
-29.5481 -2.82071 -3.08474
