19.2058 12.6941 -0.846214
19.3299 13.6486 -0.865391
19.4611 11.9046 -0.512718
20.3813 12.5 -1.18244
20.0285 13.8655 -1.13432
18.3998 12.6731 -1.35011
19.4421 13.6545 -0.968891
19.327 13.1328 -0.646095
20.3113 12.2552 -0.694481
19.1293 12.8427 -0.890877
19.0875 13.0312 -0.769348
20.0881 12.7091 -0.521397
21.1205 13.5883 -1.15534
19.5043 13.6348 -1.57308
19.4739 13.5807 -1.2519
20.4354 14.2243 -1.62711
18.7225 12.6606 -0.788826
18.8302 12.7419 -0.56176
20.2583 12.2654 -0.509815
19.4952 13.5635 -1.13573
19.9753 13.3638 -0.8391
19.9833 12.0434 -1.49717
19.2152 13.0449 -0.732307
19.9904 14.0382 -1.36361
20.2181 12.0925 -1.58239
19.8262 11.8934 -0.545586
18.5843 12.8283 -1.26389
19.9421 13.0469 -0.491108
19.9097 13.1617 -0.938786
20.8392 13.6723 -1.10531
20.2495 12.1961 -1.13692
20.4852 12.8243 -1.23334
18.8755 12.3683 -0.527088
19.8802 12.6973 -1.43204
20.613 13.4535 -1.0532
19.3582 13.5227 -1.4732
19.6472 12.0505 -1.47887
19.2517 12.6721 -1.08202
18.9021 13.133 -1.2057
20.0778 12.4445 -1.10168
19.8061 13.9096 -1.37242
19.8121 13.384 -1.22282
19.4423 12.7438 -0.488251
19.0611 13.2658 -1.23201
18.8666 13.097 -1.77694
19.635 12.5262 -0.499794
18.614 12.854 -1.60381
18.5073 12.8312 -1.4503
19.4979 13.6402 -1.34583
20.1892 14.206 -1.69426
19.932 13.3839 -1.05716
20.1297 12.3026 -0.62067
19.2558 12.9828 -0.503616
20.2576 14.234 -1.30216
19.2542 13.3761 -1.11763
19.2479 13.2758 -1.0071
19.528 13.3927 -1.00437
19.4847 13.6475 -1.94717
19.1926 13.3066 -1.81254
20.3423 12.9371 -1.21103
19.0989 13.0833 -0.957451
20.1844 14.226 -2.04778
18.8495 13.0474 -1.14614
20.2125 13.2498 -1.37694
19.7956 13.8988 -1.34232
18.5106 12.69 -1.09566
20.6967 12.7406 -1.04926
19.6238 13.4524 -0.84333
19.1534 12.036 -0.493191
20.0538 14.0474 -1.49327
20.277 13.8465 -1.05914
20.0672 12.247 -1.46588
18.6257 12.8636 -1.23161
18.6058 12.8752 -1.60534
19.0988 13.0377 -0.850754
19.7916 12.2933 -0.542404
20.1874 12.1473 -1.48595
19.1538 12.5526 -0.523331
20.7277 12.5872 -0.538811
18.4724 12.6603 -1.14333
19.2621 13.2809 -1.41441
19.7189 13.004 -1.12306
19.5354 12.831 -1.10782
19.116 12.8434 -1.03289
18.563 12.656 -1.02843
20.0435 14.0818 -1.44485
18.8417 12.6884 -0.646629
20.4043 13.5517 -1.04089
19.8629 13.3009 -0.793518
18.7448 12.4819 -0.678261
18.4172 12.4542 -1.18388
20.2945 14.1713 -1.16345
19.6927 13.4042 -0.535271
19.5531 13.505 -1.88158
19.5661 13.696 -1.92456
21.027 13.3401 -1.10543
19.4413 12.7984 -1.28597
20.058 13.2968 -1.21761
19.0517 12.7899 -0.511833
18.841 12.7942 -0.610546
19.6514 13.4859 -1.2293
20.4846 13.5904 -1.04292
19.2621 13.1692 -1.78252
20.8434 13.9967 -1.16597
19.7874 13.3197 -0.528126
19.5889 12.4702 -1.16405
19.0888 13.2909 -1.2999
19.7187 12.6118 -1.05044
20.5791 13.4883 -1.04916
20.1581 14.0404 -1.49565
19.2337 13.0851 -0.685104
20.3302 12.7846 -1.28442
19.8928 13.9062 -1.64429
19.6991 11.801 -0.533638
19.7375 13.3465 -1.17889
19.2564 13.2162 -1.47264
20.0378 12.1774 -1.5355
19.0242 11.8596 -0.5014
19.7572 13.6419 -0.815979
19.2499 13.31 -1.07731
19.1364 13.1332 -0.825943
19.6647 13.1117 -0.531918
19.8474 13.9809 -2.04741
20.9578 13.4081 -1.10192
19.6863 13.5574 -0.779709
19.6422 12.6918 -1.06379
18.9903 13.1434 -1.09729
19.9157 13.3344 -0.874268
19.445 13.17 -0.922867
19.4677 13.4462 -0.990234
19.7573 13.8961 -1.74475
18.786 12.6028 -0.556335
18.9857 13.0786 -1.01933
21.2276 13.1716 -1.14481
19.7323 12.28 -0.506298
20.6455 12.9974 -1.07627
21.3214 13.4462 -1.20368
18.8598 12.8336 -0.90078
18.6345 12.8977 -1.29439
19.4957 13.6642 -1.97205
20.7018 13.3505 -1.05137
20.0356 12.4815 -0.500999
19.1901 13.1038 -0.871662
20.0387 14.0728 -1.79981
19.1945 12.4893 -0.511139
18.8991 12.9464 -0.996395
19.676 13.2449 -1.13423
20.3625 13.1435 -1.44434
19.3357 12.3978 -0.508018
18.9306 13.1617 -1.33274
19.8877 13.9625 -1.57344
20.0078 14.0578 -1.89699
19.7763 13.909 -1.80118
19.4569 13.2444 -0.568394
20.6539 13.704 -1.08066
20.6624 14.0593 -1.18496
19.9999 14.0079 -1.58506
19.4444 12.6775 -0.51841
19.295 13.3941 -1.29798
19.7736 13.0918 -1.11492
19.7547 13.6454 -1.00279
19.0317 13.0485 -0.94017
20.2931 12.2001 -0.96825
19.7831 12.5244 -0.558212
19.3083 12.6692 -0.86372
19.5277 11.9983 -0.529053
20.1743 13.3826 -1.6451
20.1871 14.187 -1.55146
19.4667 13.4164 -1.05799
19.1037 13.2373 -1.91917
18.3598 12.6165 -1.69062
19.4853 13.447 -1.00234
19.2105 11.8015 -0.501778
19.8089 13.8786 -1.18258
20.3062 12.9016 -1.5378
20.1423 13.7435 -1.03595
19.3379 13.452 -1.39499
18.7524 12.9707 -1.15732
19.4553 12.9421 -1.14576
19.4219 13.377 -0.785789
20.1211 12.2849 -1.11702
19.925 11.8145 -1.41648
19.3942 13.0503 -0.577816
19.8551 13.5582 -1.55507
18.8487 12.895 -0.985928
19.6085 12.6666 -0.484219
19.8903 12.7375 -0.485619
19.3649 13.485 -1.66371
19.4257 12.9778 -1.40872
20.0258 14.0453 -1.76583
19.9247 14.0211 -2.06242
20.2116 12.5772 -0.501259
20.4591 13.2473 -1.08252
18.9559 12.8089 -0.751808
18.93 13.1775 -1.39154
18.9943 11.9712 -0.479759
19.2822 12.1856 -0.495857
20.5469 13.2398 -1.0415
18.5202 12.325 -0.980396
19.2805 12.6695 -0.961945
20.5249 14.3712 -1.60339
21.0554 13.6516 -1.15689
19.7442 13.8307 -1.54673
18.875 12.3005 -0.503349
18.8222 13.0349 -1.7906
19.45 13.0241 -1.09715
19.2503 13.2532 -1.63019
18.9481 12.9953 -1.00127
20.8063 13.549 -1.08517
20.5694 13.3496 -1.03654
19.6438 12.1348 -0.523552
19.7025 13.0585 -0.51384
21.1842 13.1992 -1.12717
19.1883 12.0922 -0.558731
19.7513 12.589 -1.34061
19.2543 13.2436 -0.983185
19.9472 14.0498 -2.1457
20.2247 13.2155 -1.37769
19.157 13.3089 -1.28455
21.1381 13.7303 -1.17025
20.1751 14.1805 -1.76591
19.7609 12.8654 -0.488083
19.7941 13.8019 -1.70398
19.3612 13.5243 -1.70159
20.0343 12.1989 -1.09533
19.9741 13.2776 -1.1804
19.4725 13.175 -0.514656
19.8205 12.7698 -1.42234
18.6617 12.7279 -1.01234
20.0203 12.0893 -0.517071
20.0745 13.229 -1.20417
19.2317 12.6816 -0.523182
20.0875 12.552 -0.490341
20.2194 14.2602 -1.97399
19.4566 12.9581 -0.492573
19.8949 13.5326 -1.40106
19.7293 13.5921 -1.69889
19.7174 13.6151 -1.67111
19.8163 13.5655 -1.72069
19.7229 13.5864 -1.65734
19.8029 13.5825 -1.68171
19.8094 13.5591 -1.67991
19.8018 13.561 -1.64753
19.7054 13.5938 -1.5801
19.8805 13.5478 -1.64552
19.8608 13.5664 -1.58805
19.9829 12.1446 -0.528728
19.6801 13.6155 -1.48658
19.7797 13.5704 -1.56075
19.9768 13.4977 -1.65806
19.754 13.6043 -1.49094
19.9439 13.5379 -1.5837
20.0801 13.4584 -1.69505
20.0576 13.4815 -1.64405
19.6729 13.6134 -1.45014
19.9496 13.5181 -1.58117
19.6681 13.6187 -1.43434
19.9469 13.5175 -1.57042
20.0456 13.4834 -1.6048
19.9365 13.5293 -1.54609
19.6667 13.5924 -1.39793
19.9129 13.552 -1.48617
20.0553 13.4545 -1.60465
19.825 13.5738 -1.45457
20.1941 13.3659 -1.68934
19.8166 13.5813 -1.43085
20.1915 13.3696 -1.68536
19.9018 13.547 -1.44099
19.744 13.5543 -1.3922
20.1377 13.4308 -1.58359
19.8131 13.5538 -1.38759
20.116 13.4509 -1.53747
19.9931 13.5027 -1.44981
20.0976 13.4644 -1.49503
20.0826 13.4717 -1.45648
19.8123 13.5362 -1.36602
19.9825 13.4898 -1.40201
20.086 13.4496 -1.44381
19.8299 13.4961 -1.38918
20.236 13.3523 -1.54482
19.8943 13.4936 -1.35882
19.9098 13.467 -1.38435
20.2059 13.3767 -1.48394
19.7035 13.4344 -1.38952
19.7439 13.4944 -1.3304
19.9253 13.4293 -1.39853
19.9759 13.4638 -1.35461
19.7124 13.405 -1.39732
19.9058 13.4465 -1.35059
20.2041 13.3444 -1.44597
19.7574 13.4501 -1.33875
19.8181 13.4781 -1.32854
20.0888 13.4021 -1.40371
20.3967 13.2092 -1.59937
19.8268 13.4476 -1.32994
20.3578 13.2419 -1.52892
20.0844 13.3585 -1.34816
19.7577 13.4133 -1.30568
19.8159 13.4329 -1.27852
20.2191 13.2776 -1.42158
20.3352 13.2343 -1.46159
19.7214 13.4756 -1.2295
20.1072 13.3167 -1.37399
19.8827 13.4254 -1.25553
19.9604 13.4232 -1.26783
20.2332 13.2379 -1.42197
19.656 13.4598 -1.22448
19.8845 13.4052 -1.24314
19.9596 13.3988 -1.24313
19.6538 13.4421 -1.20145
19.7175 13.4621 -1.20396
19.7232 13.4415 -1.20659
19.7934 13.4408 -1.20965
20.0837 13.3297 -1.31894
20.0862 13.3094 -1.3074
20.5 13.0826 -1.50132
20.1011 13.2899 -1.33166
19.7312 13.3959 -1.19665
19.8053 13.3932 -1.20805
20.2151 13.1974 -1.33528
20.506 13.0499 -1.48438
20.066 13.3211 -1.26117
19.9611 13.3446 -1.19974
19.9103 11.9401 -0.542843
20.0607 13.3113 -1.2376
20.5056 13.0363 -1.47042
20.5159 13.0153 -1.47556
20.5155 12.9936 -1.45403
19.6681 13.3545 -1.18456
19.9699 13.3248 -1.20819
20.1957 13.2007 -1.28718
20.5261 12.9792 -1.46597
19.8868 13.3303 -1.18604
20.1806 13.1969 -1.24458
19.9694 13.301 -1.1866
20.0745 13.2512 -1.22294
19.7437 13.316 -1.17622
19.7356 13.3239 -1.15525
20.0656 13.2532 -1.20049
20.3223 13.0992 -1.30228
20.1888 13.1534 -1.22799
19.7352 13.3016 -1.13743
19.8193 13.2681 -1.15287
19.9838 13.2322 -1.17088
20.5783 12.832 -1.45448
19.8283 13.2338 -1.15479
20.5658 12.8378 -1.43013
19.6714 13.2742 -1.13817
19.9953 13.1877 -1.16708
20.1896 13.1338 -1.2131
20.3176 13.0572 -1.25388
19.6591 13.2968 -1.11213
20.5567 12.8293 -1.40124
19.8341 13.1881 -1.13906
20.0869 13.1526 -1.17377
20.0012 13.149 -1.15312
20.2122 13.0445 -1.19575
20.3319 12.9933 -1.23369
19.9237 13.1424 -1.14732
20.0904 13.1267 -1.16227
19.7603 13.1859 -1.13585
19.7519 13.198 -1.118
20.1058 13.0834 -1.16772
19.6817 13.1857 -1.11455
19.7658 13.1484 -1.12768
20.0145 13.0939 -1.14679
20.0255 13.0776 -1.16433
20.3443 12.9489 -1.22584
20.0291 13.0465 -1.15043
20.1156 13.0396 -1.15885
20.2269 12.9904 -1.18824
19.6934 13.1442 -1.12645
19.9318 13.0905 -1.13237
20.5591 12.7501 -1.33747
19.8541 13.0915 -1.13013
19.6883 13.1396 -1.10719
20.3552 12.895 -1.20689
20.552 12.7447 -1.3167
19.7692 13.1017 -1.10771
18.9546 12.8293 -0.601982
20.0427 12.9915 -1.14608
20.1284 12.9879 -1.15164
20.2388 12.9496 -1.18461
19.4739 13.0374 -1.12883
20.5275 12.7733 -1.28545
20.2551 12.9001 -1.18521
19.8483 13.0759 -1.10303
20.3643 12.8618 -1.20097
20.5083 12.778 -1.24622
19.7792 13.0539 -1.10771
20.1399 12.9417 -1.14558
20.545 12.7147 -1.27535
19.955 12.988 -1.12446
20.2483 12.8963 -1.16571
20.3864 12.7956 -1.19899
19.7053 13.0341 -1.09854
19.868 13.0056 -1.1129
20.1524 12.9011 -1.14664
20.264 12.8511 -1.1686
20.5723 12.6499 -1.28263
19.8736 12.9784 -1.11111
19.9734 12.9362 -1.13883
20.5563 12.6652 -1.25957
19.713 12.9964 -1.10071
19.9592 12.95 -1.10983
20.1639 12.8615 -1.14587
20.2837 12.8023 -1.17825
19.9779 12.9122 -1.13478
20.0745 12.8694 -1.14131
19.7995 12.9411 -1.09911
20.0804 12.8356 -1.13292
20.1832 12.7907 -1.14202
20.3004 12.7466 -1.17556
20.4166 12.6997 -1.19225
19.7225 12.9463 -1.10207
20.4282 12.673 -1.19785
19.9037 12.8679 -1.12564
19.988 12.8408 -1.11461
20.4376 12.6452 -1.19737
19.8825 12.899 -1.08634
19.899 12.8448 -1.09845
20.3116 12.6952 -1.16343
20.1942 12.7404 -1.13293
20.3261 12.6622 -1.17292
20 12.7891 -1.11297
20.0912 12.7754 -1.11919
20.3193 12.6656 -1.1594
20.1009 12.7437 -1.12237
20.3503 12.6027 -1.18536
20.1101 12.7015 -1.11712
20.2277 12.637 -1.14127
19.7268 12.8518 -1.06507
19.8076 12.8433 -1.06682
19.8237 12.7878 -1.08154
19.9167 12.745 -1.087
20.0212 12.7041 -1.1142
20.1324 12.6448 -1.13523
20.3731 12.5202 -1.17802
20.0159 12.7071 -1.10256
20.2422 12.589 -1.14266
19.9219 12.7306 -1.09251
20.1292 12.6342 -1.12041
20.2524 12.5521 -1.14163
19.8326 12.745 -1.08304
19.9284 12.699 -1.09158
20.0334 12.6399 -1.10597
20.1382 12.6031 -1.12232
20.3955 12.4451 -1.17558
19.729 12.8013 -1.0465
20.268 12.5057 -1.147
19.8397 12.6977 -1.07741
20.422 12.3792 -1.18904
20.1454 12.5584 -1.11118
19.7355 12.7465 -1.03888
19.7603 12.6858 -1.07999
19.8491 12.6479 -1.07725
20.1611 12.5042 -1.11497
20.0533 12.5445 -1.09912
20.2965 12.4012 -1.14396
20.472 12.252 -1.21292
19.9355 12.6216 -1.0669
20.3112 12.3539 -1.14696
19.9565 12.5454 -1.0794
20.0732 12.4778 -1.10954
20.1959 12.3956 -1.13113
20.3295 12.2992 -1.15345
20.3494 12.2455 -1.16436
20.2193 12.3147 -1.13712
20.3821 12.1726 -1.19228
19.786 12.5326 -1.08097
19.8737 12.512 -1.0748
20.2061 12.3315 -1.11616
20.2229 12.2872 -1.12885
19.7883 12.5372 -1.04539
20.2359 12.2444 -1.13372
19.8869 12.4394 -1.07436
19.9915 12.3857 -1.08389
20.0137 12.3226 -1.10698
19.8929 12.4398 -1.03891
20.136 12.2317 -1.12352
20.2579 12.1634 -1.13718
20.027 12.2597 -1.10777
20.13 12.2342 -1.11036
20.288 12.0883 -1.16276
20.3282 11.9922 -1.19976
19.8028 12.3907 -1.0654
19.9215 12.2776 -1.08785
19.9275 12.2395 -1.08593
20.1643 12.0973 -1.11778
20.0505 12.132 -1.10188
20.1705 12.0669 -1.11647
19.9467 12.1502 -1.09428
19.954 12.0907 -1.08643
19.9529 12.0401 -1.06239
18.9321 12.7542 -0.51218
19.9653 12.0067 -1.07837
20.2199 14.2472 -1.65799
19.8451 13.8582 -1.08595
19.4038 13.0512 -1.32885
18.9624 13.1582 -1.5098
20.1058 14.1506 -1.28061
20.1051 14.0039 -1.13149
19.024 12.6324 -0.51009
19.611 12.6024 -1.51122
19.0361 13.2639 -1.39236
19.842 13.722 -1.89754
19.8764 13.8941 -1.61626
19.4961 11.9455 -1.49552
18.8564 12.7182 -0.699219
20.5185 13.2635 -1.02935
18.4595 12.5428 -1.18911
19.983 13.7259 -1.05277
18.664 12.9272 -1.62788
21.2155 13.0134 -1.13257
19.239 11.6917 -0.781403
18.6436 12.7918 -1.61744
19.1148 13.3352 -1.53641
19.989 13.9794 -1.77061
18.7538 12.7541 -0.93927
18.7707 11.9688 -0.95002
18.4737 12.3361 -1.04958
19.6214 13.7172 -1.6908
19.8085 12.2523 -0.539322
20.8034 13.413 -1.08597
18.5064 12.3599 -1.16264
19.3077 12.9995 -1.58094
19.8962 13.204 -0.499943
19.4067 12.8061 -0.50806
20.0728 14.1548 -2.1315
19.9926 14.0964 -2.09864
20.1196 14.1795 -2.06099
20.1163 14.1739 -2.04885
19.8909 13.9949 -2.16035
19.9349 14.0336 -2.0993
20.0588 14.1186 -2.06174
20.2558 14.2785 -1.88843
19.856 13.9962 -2.08647
20.1468 14.1847 -1.9404
19.9823 14.066 -2.04073
20.198 14.2241 -1.90143
20.2355 14.2699 -1.85035
19.9608 14.0592 -1.99123
20.2039 14.2003 -1.88373
20.099 14.062 -2.06473
20.0616 14.1258 -1.89986
19.824 13.9083 -2.10621
19.8413 13.9692 -2.01862
20.065 14.0627 -2.00493
20.149 14.1439 -1.89735
20.2181 14.2477 -1.80171
20.2882 14.2835 -1.78755
19.7983 13.9141 -2.05495
19.8335 13.9645 -1.9956
20.0249 14.0725 -1.94504
20.2706 14.2811 -1.76139
20.0587 14.1137 -1.88091
20.2569 14.2742 -1.73577
19.7796 13.9054 -2.00005
19.9549 13.9486 -2.02996
20.0536 14.0912 -1.84592
20.1992 14.2256 -1.75118
19.8252 13.9503 -1.95898
20.2393 14.2588 -1.69619
20.1179 14.1313 -1.83376
20.1866 14.166 -1.81976
19.819 13.9445 -1.93802
20.1438 14.1729 -1.75057
20.4397 14.2418 -1.79319
20.5068 14.3512 -1.69888
19.9957 14.0362 -1.84983
20.4648 14.3492 -1.64946
19.8117 13.9306 -1.90422
19.9792 13.9174 -2.03916
19.9116 14.0086 -1.83571
20.6076 14.3694 -1.69019
20.3433 14.3036 -1.59737
20.4114 14.3432 -1.5831
20.5789 14.3679 -1.65794
19.8719 13.9592 -1.87677
19.977 14.0257 -1.80411
20.2008 14.2266 -1.61107
19.9059 13.985 -1.79638
20.1353 14.1379 -1.6988
20.4629 14.2067 -1.78617
20.3813 14.3365 -1.54255
19.9659 14.0213 -1.77917
20.4864 14.1889 -1.79741
19.7842 13.9164 -1.82731
19.9514 13.999 -1.75494
20.4508 14.3512 -1.50476
19.7431 13.8514 -1.84476
19.8458 13.9365 -1.79633
20.1317 14.0432 -1.75613
20.1875 14.2112 -1.57713
20.3161 14.3314 -1.46399
19.9059 13.9719 -1.74666
20.3244 14.3223 -1.4642
19.9686 13.9319 -1.84927
20.1176 14.0532 -1.74531
20.5318 14.1394 -1.80331
20.4167 14.2403 -1.621
20.4037 14.3372 -1.44105
19.8385 13.9263 -1.75377
19.99 13.9144 -1.86801
19.9701 14.0427 -1.65105
20.3066 14.3106 -1.43278
20.0108 13.9534 -1.77852
20.0786 14.0943 -1.59891
20.5042 14.3569 -1.44006
20.0249 13.9503 -1.79971
20.4558 14.2047 -1.6316
20.2944 14.2924 -1.40111
19.804 13.9241 -1.69836
20.0027 13.954 -1.76505
20.0232 14.0657 -1.61106
20.0504 14.092 -1.54588
20.4623 14.3383 -1.38
19.762 13.8056 -1.82719
19.9108 13.9834 -1.6378
19.9558 14.0219 -1.6036
20.0954 14.1312 -1.50441
20.3473 14.2182 -1.51606
20.3721 14.3155 -1.38619
19.7564 13.8751 -1.7164
19.8047 13.9124 -1.68548
20.2025 14.253 -1.37897
19.8 13.8921 -1.65145
19.8276 13.9429 -1.60007
20.1871 14.2409 -1.34858
20.2769 14.273 -1.36219
19.9518 14.0083 -1.5817
20.0509 14.0848 -1.49953
19.8091 13.752 -1.86294
19.9391 13.9944 -1.53749
20.281 14.2528 -1.34694
20.4844 14.313 -1.37808
20.5708 14.3455 -1.37175
20.2668 14.2569 -1.33501
19.7878 13.6014 -2.0441
20.4756 14.2947 -1.35161
19.6474 13.7571 -1.7384
20.6294 14.3266 -1.40982
20.4571 14.2945 -1.33282
19.9106 13.6711 -1.98495
19.8847 13.9464 -1.54972
19.9928 14.0373 -1.49641
19.604 13.7254 -1.74687
20.0008 13.9955 -1.49878
19.5996 13.6484 -1.84537
19.5995 13.7024 -1.75466
19.6438 13.743 -1.701
19.8139 13.8544 -1.64046
19.545 13.6805 -1.74194
20.3179 14.2646 -1.27921
19.9482 13.9521 -1.50819
20.2663 14.0607 -1.52445
19.5268 13.612 -1.81985
20.3029 14.2443 -1.24343
19.6051 13.6949 -1.69511
20.4482 14.2747 -1.30479
19.8307 13.834 -1.64149
20.251 14.0605 -1.50405
19.495 13.63 -1.74124
19.6604 13.7924 -1.58519
19.8247 13.7645 -1.72145
19.9079 13.9048 -1.53824
19.9569 13.9467 -1.52089
20.1482 14.1823 -1.24401
20.2524 14.2137 -1.27629
20.7912 14.2852 -1.39515
19.846 13.8075 -1.63976
20.047 14.1237 -1.30075
19.5522 13.6519 -1.69342
20.0335 13.9514 -1.50113
20.1606 14.0184 -1.47585
19.4526 13.5867 -1.75088
20.3938 14.2559 -1.23193
19.6502 13.7805 -1.54821
19.6895 13.8333 -1.52576
19.9819 13.9136 -1.52517
20.0499 14.101 -1.28125
19.6438 13.7324 -1.61036
19.6838 13.8268 -1.50621
19.8166 13.8141 -1.59032
19.8758 13.8427 -1.57157
19.4014 13.5221 -1.79177
20.567 14.2575 -1.28456
19.728 13.8412 -1.49689
20.0067 14.0095 -1.38366
19.9962 14.0566 -1.28787
20.1019 14.1255 -1.25027
20.3943 14.2325 -1.20993
20.6275 14.2362 -1.3221
19.7166 13.8496 -1.43871
19.9782 13.9595 -1.42447
20.1505 14.1401 -1.20466
19.4976 13.6014 -1.6927
19.8091 13.9212 -1.39025
19.9118 13.9241 -1.42839
19.8943 13.9911 -1.32926
19.3302 13.4958 -1.77187
19.3923 13.5254 -1.75589
19.437 13.5648 -1.72066
20.2958 14.1942 -1.18716
19.6057 13.6781 -1.63911
19.6046 13.7228 -1.55192
19.7475 13.8379 -1.44316
19.8666 13.9458 -1.37231
19.9478 14.0011 -1.29246
19.3295 13.4834 -1.75132
20.045 14.0779 -1.25095
19.5496 13.6307 -1.66159
20.558 14.2325 -1.25214
19.3719 13.5334 -1.7117
19.562 13.6797 -1.58224
20.3955 14.2049 -1.18455
20.6041 14.2147 -1.27924
19.683 13.7959 -1.45211
19.8978 13.9732 -1.31533
19.2559 13.4455 -1.73377
19.3183 13.4955 -1.72915
20.1022 14.0872 -1.21195
19.6662 13.7987 -1.43683
19.2533 13.4703 -1.72499
19.3933 13.5054 -1.73068
19.5963 13.717 -1.5256
19.8846 13.946 -1.29306
19.3533 13.4867 -1.69411
19.377 13.4984 -1.69785
19.5849 13.7201 -1.50303
20.773 14.2062 -1.30383
19.7093 13.8257 -1.39687
19.2067 13.3998 -1.74089
19.5843 13.7097 -1.49444
20.5612 14.1986 -1.22283
19.6283 13.7356 -1.44875
19.8417 13.9231 -1.30729
19.9381 13.9785 -1.25684
19.3331 13.4534 -1.6888
19.4628 13.5862 -1.60234
19.6566 13.7823 -1.39787
19.7424 13.8528 -1.34048
19.9881 14.009 -1.22715
19.1531 13.3701 -1.75648
19.4424 13.5892 -1.54964
19.5295 13.6552 -1.48915
20.4161 14.1678 -1.16957
19.6993 13.7969 -1.3447
19.8345 13.9133 -1.28497
19.8945 13.9439 -1.24009
20.2507 14.0994 -1.16162
19.5738 13.6929 -1.44444
20.597 14.1554 -1.21553
19.1498 13.3511 -1.73358
19.3775 13.474 -1.65229
20.093 14.0429 -1.15572
19.7314 13.8397 -1.30589
19.0919 13.3298 -1.74202
20.3277 14.1237 -1.15219
19.7845 13.8644 -1.28529
19.3897 13.5453 -1.5412
19.4918 13.636 -1.4825
20.3434 14.1003 -1.14592
19.6422 13.7704 -1.35508
19.0868 13.3316 -1.71986
19.523 13.6529 -1.45335
19.9315 13.9324 -1.19278
20.155 14.0606 -1.13059
19.4452 13.5823 -1.49099
20.2714 14.0726 -1.15818
19.5505 13.6818 -1.39857
20.6401 14.0987 -1.20197
19.6305 13.7507 -1.33776
19.7173 13.8333 -1.2737
19.7817 13.8395 -1.24282
19.0989 13.3008 -1.72692
19.4509 13.589 -1.44513
19.5029 13.6351 -1.43938
19.6848 13.7773 -1.30098
19.0965 13.2893 -1.69617
19.8756 13.9007 -1.20396
19.2492 13.383 -1.64621
19.9839 13.9657 -1.17658
19.2966 13.4503 -1.58833
19.384 13.5365 -1.50337
20.1727 14.0448 -1.13556
20.2693 14.0612 -1.14465
20.7477 14.1254 -1.20382
19.0276 13.1535 -1.87553
19.7085 13.8282 -1.25211
19.8178 13.8794 -1.22152
19.3473 13.4794 -1.5493
20.1603 14.0439 -1.12016
20.3806 14.0694 -1.15506
20.4919 14.0837 -1.16402
19.6261 13.745 -1.29378
18.997 13.2316 -1.75517
19.9853 13.9387 -1.15057
20.2914 14.0351 -1.14336
20.7899 14.0999 -1.21755
19.0309 13.2569 -1.7406
19.8241 13.8649 -1.21589
19.204 13.3554 -1.64117
19.4136 13.5669 -1.4421
19.4532 13.6026 -1.39164
19.5525 13.6693 -1.36823
20.6704 14.0737 -1.20654
19.7356 13.7915 -1.25522
19.0409 13.242 -1.69783
20.0463 13.9685 -1.14074
20.7657 14.0926 -1.18856
18.993 13.2332 -1.70285
19.7642 13.8263 -1.20947
19.8143 13.8479 -1.18209
19.1455 13.3072 -1.69616
19.2245 13.4203 -1.54381
19.3608 13.524 -1.44012
20.3093 14.01 -1.13845
19.544 13.6613 -1.33969
19.5888 13.701 -1.28736
18.9754 13.2042 -1.75018
20.0422 13.9477 -1.11428
20.1956 13.9917 -1.10936
19.4061 13.5526 -1.38995
19.6117 13.7314 -1.24979
19.7048 13.789 -1.20252
19.1487 13.3113 -1.64323
19.8576 13.8922 -1.14109
20.6741 14.0455 -1.18271
20.8035 14.0522 -1.18368
19.0968 13.2702 -1.66731
19.2498 13.4012 -1.54281
20.1332 13.9612 -1.12304
20.221 13.9785 -1.12604
20.3409 13.9796 -1.14358
20.6638 14.0387 -1.16629
18.9805 13.2015 -1.68711
19.138 13.3183 -1.60845
19.8426 13.8453 -1.1591
20.0073 13.8945 -1.13514
19.4431 13.5914 -1.34923
20.406 14.0103 -1.12378
19.8052 13.8448 -1.15421
19.2688 13.4417 -1.48374
20.1481 13.9351 -1.11507
20.2187 13.9497 -1.09447
19.4928 13.6119 -1.33227
20.6843 14.0223 -1.16985
19.6616 13.7355 -1.20524
19.0785 13.2794 -1.5971
19.1261 13.3349 -1.56422
19.8733 13.8422 -1.13892
19.9458 13.8554 -1.13312
19.326 13.4599 -1.44475
20.5157 14.0141 -1.11982
19.0422 13.2122 -1.65624
20.2301 13.9449 -1.10305
20.3371 13.9624 -1.12215
20.5313 13.9898 -1.11172
20.8454 14.0135 -1.18414
19.7058 13.743 -1.18091
19.1608 13.3724 -1.49847
19.2615 13.4309 -1.44278
19.3895 13.5413 -1.34253
19.7007 13.7454 -1.1481
19.2046 13.3974 -1.44277
20.0907 13.8811 -1.10935
19.3129 13.4607 -1.42644
20.163 13.8925 -1.09035
20.3368 13.9366 -1.09605
19.426 13.5752 -1.30011
19.5635 13.6735 -1.23712
19.8145 13.8069 -1.13908
19.9488 13.8366 -1.11802
20.4366 13.952 -1.09843
20.8797 13.986 -1.18845
19.0267 13.2269 -1.60207
19.8879 13.8105 -1.12767
19.1614 13.3594 -1.48479
20.0158 13.8509 -1.10184
19.1491 13.3728 -1.45489
19.2512 13.4283 -1.4091
19.3437 13.4845 -1.34376
19.5561 13.6524 -1.19122
19.0176 13.2367 -1.57232
19.7835 13.8047 -1.09607
19.1501 13.3554 -1.45211
19.3881 13.5381 -1.29937
19.5186 13.623 -1.23945
18.9757 13.1952 -1.59853
19.0107 13.2404 -1.54471
19.0544 13.2817 -1.49331
20.0288 13.8276 -1.0957
20.105 13.8423 -1.0883
20.7818 13.9247 -1.1673
19.6048 13.6779 -1.14754
19.6467 13.6859 -1.14764
18.9624 13.198 -1.58199
19.0955 13.3251 -1.4441
19.9634 13.7923 -1.09306
19.1909 13.3933 -1.3904
19.2482 13.4067 -1.38615
20.145 13.886 -1.06159
20.2442 13.8882 -1.0627
19.4094 13.5474 -1.24164
19.8235 13.7693 -1.11378
19.3781 13.517 -1.29275
18.9584 13.1919 -1.54211
19.1344 13.3453 -1.40267
19.2917 13.43 -1.3416
20.4903 13.8868 -1.09063
19.4576 13.5968 -1.24131
20.6087 13.9065 -1.10741
20.7969 13.8901 -1.14753
20.9327 13.9189 -1.17068
19.0878 13.315 -1.44894
20.1624 13.8607 -1.0575
20.972 13.8987 -1.18649
19.697 13.6908 -1.09937
19.0465 13.2763 -1.4522
20.0172 13.8148 -1.06675
19.2344 13.3958 -1.34176
20.1815 13.8398 -1.05985
20.3658 13.8769 -1.06878
19.4405 13.5811 -1.20415
20.9565 13.8963 -1.1701
19.6055 13.6451 -1.13651
18.9493 13.1893 -1.50134
19.8288 13.7326 -1.08364
19.1038 13.324 -1.39717
19.8929 13.7589 -1.08158
19.9733 13.7758 -1.09026
19.184 13.3786 -1.34867
20.1011 13.8227 -1.06332
20.2961 13.838 -1.07291
20.3965 13.8476 -1.07366
20.6277 13.8793 -1.09953
19.5429 13.6368 -1.14854
20.0274 13.7978 -1.06324
20.1046 13.8022 -1.04708
20.5421 13.8391 -1.0978
19.4515 13.5607 -1.18862
19.0838 13.3077 -1.39809
19.9607 13.7722 -1.06861
20.0495 13.7811 -1.07623
19.5477 13.6087 -1.13199
19.765 13.7063 -1.0867
20.207 13.8043 -1.05531
21.0051 13.8476 -1.16618
19.0495 13.2866 -1.40301
19.8921 13.7278 -1.04826
19.965 13.7528 -1.05466
19.1778 13.3416 -1.3423
20.0668 13.76 -1.07816
20.3053 13.8095 -1.05507
19.3561 13.4911 -1.24306
18.9919 13.2273 -1.43856
20.0607 13.7548 -1.06446
19.3522 13.4799 -1.20298
20.4427 13.7974 -1.07469
19.3574 13.6436 -1.05577
21.0807 13.8112 -1.19867
19.8271 13.7013 -1.04834
19.3058 13.4469 -1.23892
20.4104 13.8144 -1.05574
20.5849 13.7868 -1.09085
20.8584 13.8138 -1.13058
21.0634 13.8091 -1.18085
19.7554 13.685 -1.05584
19.0871 13.3057 -1.33834
19.195 13.3724 -1.30801
20.0776 13.7365 -1.06869
20.2322 13.7737 -1.05531
20.3345 13.7777 -1.05719
20.7065 13.799 -1.09895
19.4729 13.5946 -1.10904
20.2486 13.7479 -1.04931
19.3721 13.681 -0.987316
20.9442 13.7718 -1.17093
19.6905 13.6457 -1.04903
18.9968 13.2371 -1.39545
19.1951 13.3666 -1.29056
19.2773 13.3979 -1.24649
19.2901 13.685 -0.949608
20.9105 13.7775 -1.14434
19.5395 13.5905 -1.10059
19.907 13.6902 -1.03168
19.1192 13.3292 -1.29262
19.3029 13.4301 -1.20229
20.3561 13.7487 -1.05309
20.4648 13.7651 -1.0668
20.7286 13.7765 -1.09864
20.9494 13.7424 -1.14651
19.3349 13.4492 -1.19452
20.7582 13.7507 -1.10257
19.6515 13.6076 -1.04975
19.7628 13.6587 -1.03915
19.8471 13.6577 -1.03475
20.1774 13.6994 -1.03645
20.4928 13.7397 -1.07238
20.6386 13.7311 -1.09171
19.3001 13.6609 -0.946232
20.2836 13.6999 -1.04358
20.3722 13.7287 -1.05166
19.3427 13.4424 -1.14718
20.9715 13.7248 -1.14998
18.9343 13.1613 -1.39165
20.3985 13.7037 -1.05716
19.1142 13.3211 -1.2659
20.0357 13.6472 -1.04688
19.2845 13.4068 -1.19294
20.776 13.7234 -1.09307
21.0028 13.6908 -1.14587
19.4164 13.6698 -0.933556
18.991 13.2369 -1.29774
20.1425 13.6388 -1.05671
19.2547 13.3826 -1.2023
20.5328 13.6888 -1.06546
19.3534 13.5968 -0.996815
20.8063 13.6998 -1.0998
18.9271 13.1788 -1.34627
19.6822 13.6257 -0.990116
19.098 13.2975 -1.2481
19.3029 13.4054 -1.14269
19.4039 13.6625 -0.901314
19.0277 13.2559 -1.29599
20.4213 13.6733 -1.05298
19.0591 13.2828 -1.25395
19.1584 13.3319 -1.21096
20.3345 13.6407 -1.04594
20.6935 13.6664 -1.08469
19.6422 13.5797 -1.00405
18.9724 13.2009 -1.2948
19.7851 13.6071 -1.01311
19.9685 13.6068 -1.03769
20.0546 13.6121 -1.03779
20.1595 13.6086 -1.04877
19.2569 13.383 -1.14619
20.4511 13.6365 -1.05058
20.7292 13.6369 -1.09274
21.0159 13.6567 -1.12418
19.5766 13.5741 -1.012
21.1189 13.6081 -1.17387
19.105 13.2876 -1.19287
20.5781 13.6316 -1.05806
20.8805 13.6266 -1.10079
19.5664 13.5726 -0.991142
20.0778 13.5775 -1.03511
19.1405 13.2899 -1.1998
20.3606 13.6073 -1.04404
19.3605 13.4429 -1.1022
20.7495 13.6106 -1.08751
19.5207 13.6068 -0.940384
19.4477 13.4529 -1.0542
20.9016 13.6071 -1.10241
19.6798 13.5869 -0.946304
19.9815 13.5704 -1.01972
20.2069 13.5412 -1.04388
20.3834 13.5825 -1.04674
19.3521 13.4005 -1.09347
20.7798 13.5793 -1.08793
19.4909 13.623 -0.901215
19.638 13.5631 -0.979454
18.9308 13.1577 -1.313
19.8004 13.5639 -0.993626
20.1031 13.5467 -1.03935
20.2936 13.555 -1.03889
19.2371 13.3547 -1.14979
20.6214 13.5874 -1.06137
19.8217 13.5428 -1.00689
19.0571 13.2447 -1.19211
20.0182 13.5342 -1.03708
19.155 13.2946 -1.14649
19.4848 13.494 -0.998528
21.187 13.5342 -1.16418
20.049 13.4959 -1.04339
20.9801 13.5358 -1.10912
19.3031 13.3524 -1.08751
19.4039 13.4481 -1.04395
21.2377 13.497 -1.17503
19.4123 13.609 -0.863434
19.4845 13.6092 -0.875195
19.0912 13.2765 -1.1468
20.4261 13.5271 -1.04263
20.8382 13.5234 -1.09282
19.4774 13.6105 -0.863358
19.6659 13.5776 -0.913307
19.0018 13.2069 -1.19111
20.1776 13.4721 -1.06845
20.3188 13.519 -1.03465
19.3512 13.3865 -1.0467
20.6747 13.5242 -1.05632
19.4029 13.3956 -1.04836
20.8597 13.4994 -1.09122
21.0094 13.5049 -1.10714
19.6906 13.5502 -0.927353
19.1054 13.2438 -1.13867
19.2011 13.2951 -1.09507
20.3424 13.4882 -1.03336
20.4536 13.4914 -1.03979
21.2556 13.4663 -1.16087
19.4525 13.5603 -0.893139
18.9541 13.1732 -1.20682
19.488 13.5225 -0.924137
19.5549 13.5015 -0.930836
19.1452 13.2793 -1.11473
21.0922 13.4406 -1.12511
19.5112 13.4887 -0.93536
19.5751 13.4977 -0.931435
20.4954 13.4443 -1.04295
20.909 13.4503 -1.0933
18.9548 13.1536 -1.19263
20.3573 13.4645 -1.02831
19.6244 13.508 -0.89946
20.3784 13.4426 -1.03304
19.3472 13.3577 -1.03763
20.7763 13.4346 -1.07803
20.9495 13.4201 -1.10546
21.1172 13.4145 -1.12374
18.9917 13.1855 -1.14447
19.0513 13.203 -1.13706
20.629 13.4309 -1.04874
21.1339 13.3985 -1.1241
19.143 13.2571 -1.08548
19.251 13.2984 -1.04747
19.3842 13.3042 -1.0718
20.7831 13.4163 -1.06675
21.1717 13.3729 -1.13604
19.512 13.4703 -0.91856
19.5855 13.4859 -0.894646
20.5468 13.385 -1.04515
20.8237 13.3842 -1.07896
18.905 13.1092 -1.18621
21.0115 13.3587 -1.10813
19.505 13.4547 -0.88953
18.8888 13.1408 -1.17028
20.3204 13.3801 -1.03199
19.1954 13.2693 -1.06457
20.4386 13.3732 -1.03939
19.3134 13.288 -1.04863
20.8484 13.357 -1.07868
21.2312 13.3212 -1.14302
20.2125 13.3751 -1.01853
20.3409 13.3607 -1.03968
21.2624 13.2987 -1.15137
19.0957 13.2043 -1.08217
20.3729 13.334 -1.05556
20.4483 13.3511 -1.02906
21.3082 13.2693 -1.16764
19.6372 12.9727 -1.34068
19.5594 13.4429 -0.848373
19.6459 12.95 -1.33845
21.1053 13.2733 -1.11982
19.7211 13.45 -0.878235
20.2647 13.3114 -1.02691
20.7554 13.291 -1.05286
19.629 12.971 -1.31937
20.9215 13.2779 -1.07862
20.286 13.2838 -1.02868
19.1447 13.204 -1.0383
18.9438 13.1184 -1.12321
19.0464 13.1568 -1.08157
19.0938 13.1838 -1.05788
20.6553 13.2605 -1.05025
20.2852 13.2749 -1.01851
20.4619 13.2287 -1.06728
19.2173 13.1942 -1.05247
20.2926 13.2546 -1.00821
20.6773 13.2362 -1.05214
19.0424 13.1336 -1.04617
20.4603 13.213 -1.04895
20.6977 13.2137 -1.054
20.8212 13.2209 -1.05751
19.609 12.9591 -1.26036
21.2613 13.138 -1.14571
19.4994 13.4062 -0.831825
19.566 13.4175 -0.835606
19.4536 12.9526 -1.28112
20.8583 13.1918 -1.07079
21.0571 13.1582 -1.10624
20.562 13.2086 -1.02882
19.4482 12.989 -1.19263
20.7272 13.185 -1.06059
20.8628 13.182 -1.06601
21.0822 13.1327 -1.10784
21.4155 13.0396 -1.20786
18.9936 13.1139 -1.07557
20.3345 13.2042 -1.0155
20.7452 13.1626 -1.05956
20.8944 13.1431 -1.06268
19.5511 13.4086 -0.799923
19.0816 13.174 -1.01241
20.5225 13.1463 -1.06402
19.3386 12.9843 -1.183
18.9875 13.0935 -1.04242
20.5136 13.1458 -1.05151
20.7776 13.1278 -1.06326
19.4962 13.3806 -0.801193
21.1512 13.0657 -1.11509
19.7149 13.3171 -0.868935
20.3764 13.1477 -1.01669
20.9751 13.0773 -1.08897
18.8896 13.0575 -1.09191
19.2686 12.9617 -1.16802
20.6016 13.0567 -1.0783
20.6621 13.1005 -1.04592
20.9942 13.0543 -1.08734
20.4017 13.1187 -1.0226
19.3659 12.9187 -1.19526
19.455 12.8994 -1.2122
20.8572 13.048 -1.07823
21.3274 12.9399 -1.18122
18.8825 13.036 -1.05372
18.9421 13.0438 -1.04279
19.0426 13.0898 -1.00064
19.5071 12.8388 -1.24717
21.0255 13.0237 -1.09222
19.4375 13.3466 -0.788086
20.62 13.0294 -1.07484
20.7035 13.043 -1.03974
20.8712 13.0277 -1.07442
21.0578 12.996 -1.10124
19.4455 13.2661 -0.865929
19.4918 13.3647 -0.777988
19.3199 12.8582 -1.21838
19.5297 12.777 -1.28757
21.0807 12.9744 -1.10559
19.2258 12.8873 -1.18408
19.3869 12.7407 -1.29976
19.5828 12.6898 -1.34097
19.615 12.6446 -1.38037
20.9513 12.9461 -1.08803
20.6954 12.9399 -1.08396
20.7567 12.99 -1.05333
18.9479 13.0066 -1.04358
19.1464 12.8747 -1.14752
20.7929 12.9464 -1.05466
21.0391 12.8727 -1.1195
19.4344 13.303 -0.742023
18.887 13.0005 -1.03172
20.7149 12.9111 -1.08052
19.5577 12.577 -1.3925
21.0097 12.8843 -1.09555
19.2275 12.8345 -1.14374
19.5049 12.6505 -1.31956
20.8428 12.901 -1.07179
19.1512 12.8397 -1.13344
20.87 12.8664 -1.07089
20.8335 12.7904 -1.11519
19.3231 12.5861 -0.51178
20.8754 12.8552 -1.06622
19.0655 12.85 -1.09148
20.9356 12.7929 -1.07888
19.0711 12.8528 -1.11094
19.3044 12.8088 -1.13273
20.8556 12.7585 -1.11178
19.4709 13.3204 -0.698105
19.7343 12.6422 -1.24714
19.3089 12.6 -0.981747
19.2938 12.8035 -1.09989
19.7183 12.6562 -1.22406
19.0095 12.8057 -1.09674
20.9585 12.757 -1.07088
19.8391 12.3654 -1.44796
20.6576 12.7899 -1.04503
19.603 12.5639 -1.27739
19.0056 12.8209 -1.09473
19.1262 12.84 -1.05985
19.4289 13.2539 -0.687092
19.0542 12.8341 -1.04501
19.2164 12.7948 -1.08036
19.5916 12.5505 -1.23804
20.2207 12.0885 -1.58417
19.3848 13.2245 -0.706352
19.2024 12.804 -1.04906
20.7316 12.6901 -1.04644
19.4321 12.5311 -1.24294
19.3319 13.1866 -0.700844
19.1228 12.8126 -1.02934
20.7986 12.6243 -1.0726
19.3153 13.2037 -0.681694
19.1147 12.828 -1.01759
19.2263 12.7494 -1.07205
20.8376 12.5853 -1.08709
19.4159 13.238 -0.648842
19.4314 12.5186 -1.23098
19.4977 12.5379 -1.20441
19.5811 12.5386 -1.20272
19.6378 12.5767 -1.1675
19.3679 13.2223 -0.671425
19.4225 13.234 -0.657578
20.3961 12.2261 -1.38653
20.9098 12.5068 -1.10759
20.0384 12.1406 -1.47041
20.3987 12.2148 -1.38044
18.9851 12.8056 -1.01935
19.2697 12.653 -1.11613
19.4297 12.5077 -1.2179
19.6479 12.5486 -1.16634
20.3783 12.225 -1.35221
18.97 12.8324 -0.989899
20.8563 12.5375 -1.06435
19.6685 12.5114 -1.1815
18.939 12.85 -0.947231
19.2881 13.1292 -0.698315
19.3946 13.1943 -0.634377
20.3915 12.1937 -1.34705
18.8656 12.9055 -0.908897
19.4023 12.5336 -1.16708
18.957 12.8962 -0.93845
19.3474 12.6202 -1.09349
20.371 12.2042 -1.31901
18.9399 12.8886 -0.90176
19.5955 12.4677 -1.17772
19.49 12.4909 -1.14723
20.391 12.1604 -1.31476
19.0355 12.7811 -0.953083
19.9028 11.9757 -1.49586
18.8908 12.8483 -0.908638
19.2253 12.6811 -1.01825
19.3087 12.6602 -1.02537
20.0461 11.9091 -1.52468
19.3755 13.1597 -0.632572
19.5056 12.4443 -1.14872
20.0293 11.9254 -1.50035
19.302 13.132 -0.639412
19.2087 12.6904 -0.981373
19.3651 13.1438 -0.599628
19.2719 13.1042 -0.644714
20.285 12.1216 -1.29269
18.8561 12.8781 -0.86351
18.9479 12.8575 -0.878544
19.1246 12.7157 -0.965454
19.1997 12.6846 -0.954109
19.033 12.7612 -0.933182
19.107 12.7376 -0.932877
19.2373 13.0876 -0.652668
19.0453 12.7157 -0.938732
20.6396 12.4045 -0.982666
19.3139 13.1255 -0.614071
18.896 12.8111 -0.887428
19.2097 12.6546 -0.958801
19.0977 12.7399 -0.895309
20.6408 12.3831 -0.963371
19.4471 13.0962 -0.584633
19.0285 12.7258 -0.898472
19.182 12.6902 -0.912613
19.8069 11.8727 -1.43117
19.923 11.8448 -1.4359
19.215 13.0626 -0.628613
19.4664 13.0669 -0.595123
19.9141 11.8499 -1.41933
19.1864 12.6497 -0.896549
19.934 11.8094 -1.43306
19.4809 13.0298 -0.590225
20.5179 12.3635 -0.939705
19.2125 13.0367 -0.606403
19.263 13.056 -0.588829
18.9047 12.8441 -0.804417
18.9869 12.7961 -0.827248
20.6251 12.3534 -0.911041
19.247 12.6701 -0.880669
19.2283 12.6935 -0.85178
19.7685 11.8936 -1.35534
19.1848 12.9955 -0.642761
19.3243 13.0534 -0.576973
18.8761 12.8874 -0.747734
20.5223 12.3343 -0.918327
19.0966 12.6856 -0.845604
19.7891 11.849 -1.37026
19.5963 12.9467 -0.592167
18.8691 12.9078 -0.73938
20.503 12.3379 -0.892136
19.2787 12.7144 -0.814873
19.1664 13.0078 -0.621483
19.3979 13.0309 -0.568886
18.9522 12.8365 -0.757435
19.2481 12.7573 -0.775291
19.3272 13.0324 -0.566132
19.2543 13.0388 -0.557163
19.1591 12.6472 -0.841099
19.1975 12.9899 -0.590797
19.4074 13.0011 -0.562691
19.5128 12.9441 -0.576492
20.4328 12.2768 -0.905769
18.8774 12.8598 -0.73682
20.5091 12.2938 -0.859268
20.3874 12.2935 -0.849449
19.1113 12.9453 -0.597248
19.2737 12.9848 -0.556431
19.4302 12.9499 -0.563911
19.627 12.8768 -0.585945
18.8731 12.8411 -0.715702
19.1024 12.9759 -0.598045
19.2634 13.0028 -0.53653
19.5175 12.9203 -0.565151
19.1053 12.5997 -0.841637
19.8529 13.9229 -1.15042
19.4531 12.9098 -0.574303
19.5294 12.8879 -0.559822
19.6271 12.8612 -0.572914
18.8671 12.8385 -0.700203
19.1443 12.6485 -0.792233
19.1917 12.6908 -0.763783
19.1451 12.9447 -0.59618
19.2078 12.9856 -0.559082
19.4448 12.8966 -0.548462
19.76 12.7803 -0.58963
19.2845 12.9428 -0.546623
19.5508 12.8459 -0.563576
18.8786 12.7856 -0.694405
19.0558 12.9056 -0.589706
19.2144 12.9517 -0.540424
19.0509 12.928 -0.592083
18.7935 12.8652 -0.675709
18.8919 12.7625 -0.72686
18.9229 12.8276 -0.676792
19.372 12.8951 -0.545746
18.8251 12.7751 -0.722424
18.9106 12.8305 -0.647316
18.9881 12.8034 -0.654984
19.465 12.85 -0.54871
19.5643 12.8089 -0.557297
19.6798 12.7434 -0.564388
19.2312 12.8933 -0.539337
19.3891 12.8543 -0.547146
18.8943 12.7536 -0.689381
19.5757 12.7809 -0.554859
19.0114 12.84 -0.591568
19.1578 12.8952 -0.539711
18.8372 12.8402 -0.638695
19.0482 12.8848 -0.559708
19.7004 12.6897 -0.554718
18.815 12.7669 -0.69146
19.3223 12.8358 -0.542137
18.828 12.7027 -0.746223
19.1777 12.8805 -0.530472
20.0185 12.4882 -0.606857
18.9639 12.8092 -0.605438
19.5077 12.7324 -0.534653
19.7265 12.6397 -0.557529
20.0432 12.4438 -0.607079
20.3253 12.2281 -0.691513
18.8444 12.8108 -0.626343
18.9033 12.7956 -0.604969
19.056 12.845 -0.543961
19.6341 12.6451 -0.5481
18.9369 12.8482 -0.570141
19.1357 12.8492 -0.531643
19.2548 12.7892 -0.528267
19.4291 12.7321 -0.530319
19.7536 12.5877 -0.560539
20.3452 12.1931 -0.69054
18.8804 12.742 -0.651253
18.9963 12.8333 -0.555168
19.3533 12.7389 -0.532173
20.0621 12.4029 -0.601189
20.0269 12.3311 -1.03405
19.1943 12.7889 -0.531113
19.7684 12.5506 -0.554947
18.8839 12.705 -0.640362
19.5458 12.6444 -0.535355
18.8563 12.745 -0.627064
18.9424 12.7947 -0.555561
19.0009 12.8044 -0.545284
19.0376 12.8393 -0.509892
19.2084 12.7418 -0.529396
20.1216 12.3047 -0.609596
18.8429 12.7446 -0.5937
19.374 12.6823 -0.531681
19.5622 12.6032 -0.5331
20.1086 12.3123 -0.595505
19.459 12.6484 -0.523781
19.663 12.5608 -0.53117
19.3867 12.688 -0.500591
19.6966 12.4961 -0.538116
19.2139 12.7136 -0.522263
20.2311 12.135 -0.634491
18.8938 12.7412 -0.554527
18.9859 12.7946 -0.511208
19.2987 12.6414 -0.525471
19.5866 12.5395 -0.527996
19.4885 12.5755 -0.524734
19.8486 12.3857 -0.554588
20.2506 12.0992 -0.634052
19.3274 12.6004 -0.529636
19.3967 12.5879 -0.512547
19.724 12.4358 -0.537956
18.9975 12.7449 -0.510628
19.2464 12.6492 -0.523403
19.6243 12.4577 -0.533024
19.0778 12.7005 -0.517082
19.1678 12.6478 -0.530735
19.6143 12.4722 -0.526089
19.7474 12.3906 -0.542538
19.8702 12.3325 -0.547169
19.2331 12.6302 -0.508057
19.4241 12.5373 -0.524776
19.5232 12.4919 -0.527294
19.8974 12.2843 -0.553345
18.9061 12.7031 -0.537605
19.1619 12.6535 -0.515747
19.5097 12.5022 -0.510185
18.7967 12.6383 -0.594612
19.0145 12.6871 -0.51746
19.0858 12.6669 -0.51527
19.3372 12.5438 -0.515476
19.4364 12.4992 -0.521454
19.902 12.2664 -0.54652
18.9408 12.691 -0.529076
19.1043 12.6338 -0.528435
19.1917 12.597 -0.513783
19.531 12.4541 -0.514137
19.6621 12.3632 -0.528664
19.9408 12.1961 -0.547264
20.1485 12.0482 -0.602428
18.8762 12.7238 -0.51516
19.25 12.544 -0.512165
19.0174 12.6543 -0.507072
19.104 12.5958 -0.514343
19.357 12.4898 -0.513893
19.451 12.4975 -0.514374
19.9845 12.1283 -0.57185
18.7731 12.6778 -0.55061
18.8819 12.6871 -0.512299
18.9495 12.6428 -0.529877
19.4558 12.4364 -0.51442
19.5471 12.3947 -0.514565
19.6718 12.3328 -0.522865
19.9925 12.1006 -0.562706
18.7803 12.6446 -0.556816
19.1891 12.5406 -0.511353
19.2756 12.4951 -0.508286
19.6947 12.2905 -0.531399
19.8262 12.215 -0.540474
18.849 12.6619 -0.536804
19.3659 12.459 -0.510822
19.447 12.3978 -0.512299
19.6904 12.3117 -0.506702
19.8607 12.1472 -0.541603
18.9622 12.6042 -0.508682
19.3996 12.4356 -0.512444
19.4747 12.3859 -0.515118
19.7019 12.2342 -0.52594
20.0351 12.0251 -0.572468
18.8854 12.6409 -0.544857
18.9724 12.5898 -0.524296
19.0375 12.5796 -0.512333
19.1152 12.5381 -0.506279
19.4802 12.3519 -0.51255
19.6016 12.2906 -0.524624
19.8902 12.0955 -0.535225
20.0468 11.9994 -0.570972
18.8204 12.6713 -0.51099
19.7334 12.1942 -0.527596
19.1255 12.4966 -0.505402
19.506 12.3003 -0.514622
19.7437 12.1509 -0.527546
19.9017 12.0537 -0.543865
19.2271 12.4293 -0.51609
19.9308 11.9934 -0.546677
19.2089 12.4526 -0.506065
19.5393 12.2456 -0.514927
19.6358 12.1945 -0.517685
19.9523 11.9619 -0.558758
19.4422 12.2587 -0.52647
19.8013 12.051 -0.539761
19.4402 12.2449 -0.513657
18.8423 12.5439 -0.514442
18.9157 12.5043 -0.512516
18.9825 12.4922 -0.502014
19.0667 12.4385 -0.504372
19.2393 12.3518 -0.503906
19.545 12.1876 -0.51046
19.6857 12.0865 -0.530407
19.1472 12.3973 -0.49736
19.3284 12.2911 -0.507473
19.7037 12.0396 -0.52953
19.8414 11.957 -0.539917
19.0709 12.4228 -0.505516
19.3526 12.2451 -0.511971
19.4511 12.2041 -0.508545
19.2574 12.2943 -0.507446
19.5803 12.0833 -0.525517
18.9315 12.4398 -0.521358
19.0753 12.3915 -0.49955
19.1606 12.3426 -0.495918
19.2682 12.2585 -0.508556
19.7445 11.9395 -0.531685
18.9234 12.4431 -0.504814
19.2716 12.2345 -0.502003
19.4863 12.1038 -0.511093
18.8604 12.4396 -0.518147
18.9337 12.3982 -0.509636
19.1961 12.3008 -0.508949
19.7595 11.9007 -0.531269
18.8754 12.3826 -0.547691
19.382 12.1479 -0.505238
19.5021 12.0619 -0.514149
19.6358 11.9625 -0.525978
19.1846 12.2504 -0.496738
19.662 11.8966 -0.529762
19.0993 12.2872 -0.499554
19.3052 12.1418 -0.511433
19.5229 12.2882 -0.523544
19.0245 12.2907 -0.503273
19.1019 12.2581 -0.491188
19.1994 12.1899 -0.49543
19.673 11.8573 -0.52364
19.3084 12.0898 -0.494343
18.9431 12.3161 -0.498356
19.437 11.9773 -0.509602
19.5775 11.8573 -0.526276
19.7137 11.7645 -0.535961
19.2279 12.0827 -0.498001
19.592 11.8094 -0.523399
19.0351 12.1992 -0.48687
19.3603 11.9488 -0.518013
19.6093 11.7613 -0.525421
18.8681 12.3009 -0.488464
19.1443 12.0883 -0.498711
19.3932 11.892 -0.548588
19.6316 11.7026 -0.530243
19.3676 11.9072 -0.509644
19.5095 11.7749 -0.528637
19.2538 11.9837 -0.499569
19.3704 11.8911 -0.506508
19.5276 11.7277 -0.535358
19.0633 12.0822 -0.49651
19.5389 11.6942 -0.537239
18.8918 12.1827 -0.501198
19.2636 11.9412 -0.497757
19.4056 11.7892 -0.519318
19.2835 11.8793 -0.506004
19.5545 11.635 -0.532555
18.9626 12.1509 -0.47831
19.0707 12.0411 -0.494785
19.1583 11.9975 -0.485695
19.1741 11.948 -0.494915
19.2859 11.852 -0.497337
19.4432 11.6794 -0.53231
19.0914 11.9496 -0.499947
18.9099 12.0512 -0.498024
19.208 11.8358 -0.511795
19.339 11.694 -0.523048
19.4737 11.5663 -0.530609
19.3623 11.6098 -0.527363
19.1062 11.857 -0.492748
19.241 11.6947 -0.514557
19.1235 11.7977 -0.503937
19.3838 11.534 -0.531979
19.1368 11.7378 -0.506851
19.2504 11.6522 -0.514408
19.1517 11.6714 -0.510605
19.2768 11.5475 -0.52039
19.168 11.6136 -0.520088
19.3017 11.47 -0.534981
18.9479 11.8105 -0.504074
19.1758 11.5792 -0.522301
19.1801 11.5409 -0.516174
19.2087 11.4185 -0.52528
19.109 11.4393 -0.52858
19.119 11.3872 -0.531078
19.0462 11.2887 -0.552246
19.0527 11.2332 -0.549778
20.3101 12.3593 -0.5121
19.848 13.0338 -0.510414
19.4813 13.1495 -0.49786
19.8444 13.8918 -1.58164
19.2536 13.2756 -1.65477
18.632 12.8758 -1.2623
19.6128 13.7226 -1.30264
19.2038 12.3414 -0.528706
19.1164 12.8632 -0.890762
19.7086 13.1784 -0.531448
18.4419 12.3346 -1.15665
20.1415 12.2498 -0.518181
18.8303 12.4875 -0.576256
18.8048 13.0727 -2.04469
20.1181 12.7765 -0.488926
19.7427 13.4447 -1.05089
19.6335 11.8823 -1.49158
18.6427 12.8407 -1.44877
19.5767 12.7863 -1.09986
20.2462 14.2493 -1.75467
20.1762 14.1896 -1.77485
20.2095 14.2288 -1.70723
20.1065 14.1094 -1.77371
20.0554 14.0849 -1.70514
20.1986 14.1789 -1.6552
20.1565 13.9657 -1.96791
20.1707 14.1642 -1.61982
19.9934 13.997 -1.69736
20.1236 14.146 -1.56573
20.0476 14.0336 -1.65174
19.8013 13.8628 -1.77357
19.7015 13.8112 -1.74514
19.9789 13.9751 -1.66323
20.035 14.0609 -1.53959
19.979 13.9641 -1.65322
19.6793 13.7886 -1.6958
19.9672 13.9539 -1.63239
19.9881 13.9939 -1.56174
19.8295 13.8651 -1.67079
19.6169 13.7389 -1.70734
19.9758 14.0253 -1.45722
20.008 14.0588 -1.39605
19.5522 13.6852 -1.70922
19.5303 13.6258 -1.76218
19.7694 13.8405 -1.58305
18.8236 13.0933 -2.14011
18.8664 13.1445 -2.0846
19.8074 13.8693 -1.523
19.8878 13.8987 -1.50515
19.6217 13.6962 -1.66971
18.9821 13.2204 -2.03323
19.789 13.8582 -1.49389
18.7634 13.0449 -2.14658
18.9718 13.2213 -2.00747
18.8196 13.0858 -2.11434
19.6844 13.761 -1.54144
19.8503 13.8828 -1.45445
19.9906 14.0126 -1.34118
18.8172 13.0801 -2.09702
19.6228 13.7278 -1.56764
18.8681 13.1268 -2.06201
18.9114 13.1753 -2.01151
19.7729 13.8471 -1.46707
19.0344 13.2435 -1.97432
19.9215 13.9695 -1.36082
18.6971 13.0005 -2.13636
18.9685 13.2065 -1.9778
19.8909 13.9115 -1.39847
19.9002 13.9614 -1.33526
19.5727 13.6718 -1.5832
18.913 13.1628 -1.99739
18.6938 12.9917 -2.10807
19.5416 13.5979 -1.65103
18.8813 13.0909 -2.04594
18.922 13.1415 -1.99127
19.0019 13.2417 -1.8937
19.8452 13.8593 -1.42771
19.5356 13.6124 -1.61108
19.5661 13.7092 -1.48159
19.8148 13.8424 -1.38297
19.3082 13.4521 -1.6895
18.6276 12.9468 -2.09258
18.7614 13.0024 -2.06723
18.7958 13.0699 -2.0111
19.6731 13.7768 -1.4189
18.9501 13.186 -1.90141
19.7317 13.807 -1.38762
19.8613 13.8844 -1.34692
18.6857 12.9828 -2.06106
18.7628 13.0046 -2.07581
19.431 13.5105 -1.64285
18.9054 13.0472 -2.05138
18.9284 13.1181 -1.97465
19.6526 13.765 -1.38578
19.0327 13.2616 -1.79175
19.8635 13.9215 -1.26795
18.6239 12.9335 -2.0525
19.7235 13.7955 -1.36841
19.8784 13.8643 -1.34398
18.6931 12.9556 -2.04205
18.8868 13.1369 -1.88742
18.9364 13.1767 -1.85336
19.8568 13.8609 -1.32127
19.6216 13.7063 -1.41706
18.9906 13.2098 -1.82381
19.3704 13.4576 -1.64205
18.8775 13.1272 -1.84839
19.7831 13.8031 -1.31606
18.7814 12.9533 -2.05589
19.5256 13.6688 -1.39325
18.8461 13.0726 -1.91451
18.9397 13.1531 -1.82973
19.303 13.4093 -1.63256
19.1578 13.356 -1.63435
18.564 12.8784 -2.03999
18.6183 12.9152 -1.99665
18.7966 12.931 -2.07222
18.8399 13.0676 -1.88891
19.6794 13.7588 -1.28928
18.5495 12.8869 -1.99062
18.8844 13.1093 -1.84188
19.7679 13.7885 -1.28783
19.2066 13.2565 -1.77893
19.2941 13.4051 -1.59185
18.7356 12.9777 -1.93801
18.7867 13.0127 -1.89395
19.0308 13.0701 -1.94714
19.2204 13.242 -1.78843
19.2085 13.3733 -1.58656
18.6073 12.9115 -1.94532
19.3961 13.5149 -1.48264
18.8766 13.0992 -1.80671
19.0428 13.0554 -1.95778
19.8279 13.8117 -1.24981
19.2067 13.2411 -1.76066
19.3958 13.505 -1.44592
18.6587 12.9459 -1.89791
19.4223 13.5613 -1.40857
19.5819 13.6619 -1.329
18.9926 13.0878 -1.87463
19.4796 13.6307 -1.30098
18.9526 13.1783 -1.6928
19.7504 13.7558 -1.24055
18.7784 13.0003 -1.84953
19.795 13.7887 -1.19892
19.8374 13.8793 -1.09881
18.5321 12.8799 -1.90076
18.6001 12.899 -1.89546
18.7261 12.9473 -1.8591
18.8503 13.0996 -1.73672
19.1071 13.2062 -1.6969
19.235 13.1971 -1.76318
18.6555 12.9304 -1.86115
18.7153 12.9585 -1.84024
18.8178 13.0426 -1.78889
18.8398 13.0909 -1.69682
18.9315 13.1071 -1.74718
19.3775 13.4849 -1.39959
18.9436 13.1607 -1.6491
19.7784 13.756 -1.15353
19.242 13.3958 -1.44561
18.6823 12.8917 -1.89702
18.5245 12.8694 -1.84933
18.7346 12.8268 -1.98295
18.7472 12.9951 -1.74609
18.8802 13.1252 -1.64341
18.9272 13.1563 -1.60556
19.2224 13.3647 -1.451
19.4235 13.5525 -1.27568
19.5355 13.6134 -1.2295
18.5288 12.8491 -1.83329
18.8113 13.0168 -1.73419
18.8365 13.0746 -1.66624
18.8858 13.105 -1.63105
18.9695 13.19 -1.5624
19.1096 13.1517 -1.6361
18.8439 13.0634 -1.67087
18.9194 13.1516 -1.58158
19.7728 13.7799 -1.06158
19.3049 13.0993 -1.78268
19.3258 13.4579 -1.3
18.7396 12.7986 -1.9571
18.6916 12.9428 -1.73866
18.7406 12.9794 -1.70368
18.913 13.133 -1.54379
19.8337 13.8089 -1.03196
19.5217 13.5909 -1.19217
18.9743 13.1583 -1.53469
19.7664 13.7594 -1.03729
19.8184 13.8057 -1.01677
18.5761 12.8743 -1.76197
19.1049 13.1307 -1.6017
18.5168 12.8438 -1.77396
18.6315 12.8999 -1.72899
18.6796 12.9392 -1.69469
18.8575 13.0935 -1.54708
19.2632 13.1006 -1.70348
19.1102 13.3206 -1.35802
18.7299 12.9749 -1.66539
18.8154 13.052 -1.5817
19.1249 13.1141 -1.6226
19.0819 13.21 -1.48228
19.3805 13.5099 -1.1796
18.7251 12.9625 -1.6342
18.7911 12.9897 -1.64103
18.9781 13.1306 -1.50941
19.1107 13.1025 -1.58022
18.6724 12.9276 -1.65492
18.9085 13.0972 -1.49004
18.8525 13.0779 -1.51539
18.6406 12.6547 -1.98019
18.6092 12.8923 -1.64108
18.7881 13.0409 -1.49712
19.1053 13.0989 -1.56491
19.1947 13.3444 -1.24847
19.4839 13.5351 -1.09534
18.6995 12.9713 -1.57029
19.1241 13.0748 -1.57494
19.4077 13.5006 -1.08748
19.6672 13.6288 -1.04152
19.7625 13.6949 -0.974125
18.6999 12.9525 -1.54654
19.5298 13.5453 -1.04335
18.9209 13.0714 -1.48676
19.6881 13.5995 -1.03344
19.2343 13.3603 -1.19601
19.3705 13.4677 -1.12489
19.0143 13.0603 -1.5037
19.0019 13.1436 -1.40855
19.3163 13.4333 -1.13912
18.6631 12.8944 -1.58037
18.744 12.978 -1.49679
18.5831 12.7989 -1.67513
18.8541 13.0314 -1.46256
18.9314 13.0423 -1.47586
19.475 13.4963 -1.04746
18.7953 13.0073 -1.47354
19.0291 13.0359 -1.50652
19.0722 13.2675 -1.23567
18.4544 12.7556 -1.67885
19.7552 13.6664 -0.941315
18.6083 12.7532 -1.7011
19.6024 13.5402 -1.00301
18.9738 13.1961 -1.26176
19.1788 13.3048 -1.18276
18.6717 12.8706 -1.57538
18.8057 12.9799 -1.46622
18.9554 12.9979 -1.47733
18.912 13.1772 -1.26756
19.0734 13.2402 -1.20842
18.624 12.8282 -1.60193
18.8639 13.0044 -1.45361
18.6382 12.703 -1.73795
19.3544 13.4239 -1.06127
19.5405 13.4941 -1.0049
18.8805 12.9793 -1.46272
18.7151 12.8918 -1.51225
18.8674 13.1312 -1.27574
18.5096 12.7598 -1.61723
18.8317 12.9358 -1.47816
18.8585 13.1306 -1.25648
18.4759 12.7968 -1.54021
