-25.0514 -6.09824 -2.49811
-24.7493 -5.77771 -2.44915
-25.2652 -6.50974 -2.7121
-24.7289 -5.9433 -2.49535
-25.1074 -6.20523 -2.20074
-24.8104 -5.65842 -2.10913
-25.2449 -4.80362 -2.7434
-24.7457 -5.6427 -2.13747
-25.6768 -6.59485 -2.61142
-24.6328 -5.63718 -2.57351
-24.6239 -5.40726 -2.70472
-25.62 -5.66309 -1.76314
-24.6056 -5.67294 -2.44599
-25.5276 -6.50583 -2.21245
-25.5943 -6.46747 -2.90699
-25.2544 -6.49887 -2.74105
-24.6252 -5.44791 -2.64113
-24.7087 -5.80759 -2.81466
-25.2237 -6.45801 -2.66154
-25.0638 -6.26938 -2.72094
-25.0785 -5.1947 -3.10602
-24.6389 -5.82932 -2.70398
-25.2184 -4.76981 -2.79367
-24.8903 -6.10318 -2.48254
-24.6387 -5.62631 -2.88257
-24.628 -5.46106 -2.71708
-25.1319 -5.4469 -1.83868
-25.0455 -5.37604 -2.97316
-24.6146 -5.66284 -2.76382
-25.0197 -5.55313 -1.94075
-25.1015 -6.3342 -2.5747
-24.639 -5.7739 -2.65441
-24.984 -6.10617 -2.33682
-24.8069 -5.86301 -2.44331
-25.2466 -6.36505 -2.24086
-25.0937 -4.87589 -2.44391
-24.7752 -5.39792 -2.18248
-25.2596 -6.46964 -2.78702
-25.027 -6.1814 -2.21079
-24.66 -5.68231 -2.84248
-24.7563 -5.59927 -2.14476
-24.9387 -6.09799 -2.43757
-25.9246 -6.40027 -2.19841
-25.01 -6.24796 -2.68217
-25.2263 -6.24576 -2.20306
-25.0833 -5.53171 -1.89134
-25.0041 -6.14984 -2.39175
-25.0086 -6.02832 -2.15827
-25.7597 -6.50345 -2.27516
-24.8588 -5.91794 -2.1866
-25.2126 -6.41254 -2.80207
-24.9983 -5.55743 -1.90976
-24.7243 -5.60629 -2.86064
-24.8388 -5.98004 -2.25521
-25.7932 -6.45346 -2.19202
-25.0994 -6.29498 -2.82789
-24.9975 -6.15091 -2.28366
-25.2319 -4.82675 -2.71005
-25.4574 -4.62073 -2.93271
-26.0011 -6.38455 -2.21619
-25.7997 -4.22369 -2.74854
-24.7775 -5.99194 -2.78881
-25.1489 -6.35367 -2.70061
-24.6741 -5.63565 -2.25403
-24.8407 -5.94626 -2.43543
-24.8204 -5.93109 -2.45537
-24.7561 -5.96732 -2.74936
-25.1051 -6.22601 -2.34928
-25.7699 -6.41315 -2.2249
-25.0617 -4.95056 -2.74773
-25.7352 -4.27411 -2.87655
-24.8619 -5.10916 -2.89461
-24.6101 -5.50565 -2.74559
-24.8317 -5.9668 -2.28342
-25.0641 -6.26465 -2.83714
-24.9445 -6.06711 -2.43833
-25.6448 -6.56277 -2.87943
-25.4535 -6.44608 -2.29404
-25.0684 -6.19653 -2.25278
-25.8006 -6.43842 -2.95998
-25.2087 -6.44528 -2.73709
-25.1883 -6.34399 -2.351
-25.1702 -6.35403 -2.3484
-25.0587 -6.21719 -2.40951
-24.6462 -5.59595 -2.75897
-25.1053 -5.34814 -1.87459
-25.0707 -6.3522 -2.48605
-24.6856 -5.84158 -2.77722
-24.8283 -5.86719 -2.18204
-25.0329 -6.14853 -2.223
-25.4472 -6.3353 -2.01072
-25.0128 -6.18607 -2.57574
-24.6024 -5.50476 -2.67565
-24.9119 -5.95718 -2.09262
-25.4817 -6.28314 -2.03918
-24.9596 -5.03842 -2.67107
-24.9247 -6.09473 -2.56105
-25.3585 -6.54294 -2.78294
-24.7077 -5.8443 -2.44016
-24.6638 -5.84482 -2.68861
-25.2244 -6.22952 -2.2321
-24.7888 -5.2659 -3.05415
-24.6118 -5.66943 -2.81308
-24.9418 -6.13901 -2.47122
-24.8463 -6.02328 -2.54985
-24.6068 -5.54309 -2.75741
-24.8367 -6.0361 -2.64079
-24.6418 -5.40601 -2.75449
-25.5611 -6.5892 -2.7374
-25.0346 -6.18607 -2.34622
-25.2962 -6.55136 -2.49866
-24.6207 -5.43988 -2.52863
-24.7175 -5.26166 -2.75563
-24.8717 -5.12213 -2.86311
-24.8236 -5.11649 -2.96743
-24.7697 -5.84744 -2.34247
-24.9484 -6.06836 -2.39122
-25.4827 -6.49017 -2.32131
-25.0964 -4.90234 -2.80679
-25.3189 -6.3844 -2.10282
-24.7662 -6.03586 -2.70538
-24.7087 -5.90799 -2.64105
-24.8803 -5.25873 -2.16759
-24.6354 -5.62283 -2.51415
-24.7017 -5.57016 -2.23962
-25.6402 -5.61304 -1.74699
-25.2105 -6.45682 -2.69425
-24.664 -5.69998 -2.43889
-24.6672 -5.44589 -2.8393
-24.9908 -6.22476 -2.69008
-25.195 -6.34195 -2.47215
-24.7121 -5.80197 -2.49852
-25.5684 -6.46848 -2.19266
-24.8675 -5.14322 -2.82986
-24.9017 -6.04352 -2.83037
-24.6046 -5.58743 -2.57476
-24.9715 -5.00311 -2.45431
-24.9153 -6.03232 -2.2426
-24.731 -5.8707 -2.54067
-25.2324 -4.76175 -2.51041
-26.1199 -3.94287 -3.03285
-25.1078 -6.18796 -2.10136
-25.6046 -6.61203 -2.65053
-25.0416 -6.11063 -2.25272
-25.0661 -6.16885 -2.15756
-24.8963 -5.11243 -2.58897
-25.2343 -6.12302 -2.08245
-25.8017 -6.53217 -2.25403
-24.9864 -5.02924 -2.28454
-24.8549 -5.91739 -2.23365
-24.6141 -5.79578 -2.57332
-24.8451 -5.98685 -2.38184
-24.6299 -5.64615 -2.84883
-25.6857 -6.46045 -2.2354
-25.2616 -6.35086 -2.5918
-24.7091 -5.2565 -2.9496
-24.812 -5.66068 -2.17767
-25.8089 -6.11069 -1.94612
-25.4757 -6.53397 -2.2825
-25.6671 -6.43555 -2.09064
-25.5024 -6.49527 -2.28597
-25.2043 -6.375 -2.7938
-24.6791 -5.80157 -2.79064
-25.3415 -6.37094 -2.49055
-24.9603 -5.00662 -2.98726
-25.2688 -6.38065 -2.3378
-24.9594 -6.16733 -2.83138
-24.8402 -5.57498 -2.11528
-24.7083 -5.31363 -2.84988
-26.0609 -3.99069 -2.98209
-24.798 -5.15515 -3.0844
-25.3907 -5.71375 -1.77256
-24.8451 -5.68979 -2.12959
-25.7732 -6.45154 -2.16121
-25.891 -4.15744 -2.74171
-25.4123 -6.49872 -2.38585
-25.6052 -6.56549 -2.63578
-25.6122 -6.48941 -2.159
-25.0473 -6.03674 -2.11839
-25.4285 -5.80386 -1.77839
-25.4783 -4.58453 -2.98735
-24.8902 -5.2482 -2.18385
-25.0697 -6.30704 -2.49918
-24.8206 -5.40155 -2.14246
-24.6048 -5.71597 -2.75443
-24.9339 -5.88779 -2.10427
-24.8423 -5.3833 -2.94587
-25.7701 -4.25372 -2.78187
-24.8222 -5.97964 -2.84462
-25.405 -4.63528 -2.93538
-24.5781 -5.59967 -2.59796
-24.7224 -5.66226 -2.2043
-24.8074 -5.59995 -2.09484
-25.4192 -4.59576 -2.62066
-25.2141 -6.35483 -2.29733
-24.7023 -5.89877 -2.59478
-25.7182 -6.41849 -2.10226
-25.5561 -6.45181 -2.14223
-24.6335 -5.65491 -2.54311
-25.0663 -6.2854 -2.69127
-24.6062 -5.55399 -2.54647
-25.6439 -6.60818 -2.62847
-25.1049 -6.25745 -2.58696
-25.4606 -6.31747 -2.0359
-24.6689 -5.858 -2.51208
-24.8342 -6.0343 -2.61395
-25.3837 -6.25772 -2.05183
-25.023 -6.19293 -2.30309
-24.7602 -5.36465 -2.89999
-24.7733 -5.50369 -2.22921
-24.8204 -5.62628 -2.05676
-24.7517 -5.8515 -2.4363
-24.864 -5.55533 -2.05652
-24.6068 -5.49741 -2.58166
-25.1238 -5.42877 -1.85071
-24.7605 -5.57169 -2.19677
-24.7627 -5.82214 -2.3611
-25.1081 -6.31778 -2.80503
-25.843 -4.18976 -2.75482
-25.7615 -6.39526 -2.093
-24.6735 -5.68787 -2.37032
-24.7352 -5.71994 -2.19813
-25.8927 -4.09653 -2.89498
-24.6597 -5.73151 -2.39059
-25.0495 -6.28635 -2.8027
-24.6976 -5.81204 -2.55194
-24.7284 -5.93927 -2.56908
-24.9916 -6.12027 -2.45244
-25.9527 -6.39954 -2.26608
-25.9289 -4.10767 -2.80328
-24.6584 -5.81281 -2.74798
-25.8054 -6.5831 -2.74103
-25.9404 -4.08487 -2.78853
-24.8933 -5.92889 -2.1204
-24.6385 -5.41632 -2.69437
-24.8353 -5.44806 -2.09435
-25.7134 -6.51486 -2.29378
-25.0737 -6.17004 -2.47395
-25.2208 -6.40396 -2.82526
-24.935 -6.18442 -2.68103
-25.4274 -6.5246 -2.53667
-25.8906 -4.14789 -2.80132
-25.6552 -6.60013 -2.80386
-24.9911 -6.16403 -2.54585
-24.6141 -5.75616 -2.70964
-24.796 -5.61029 -2.17263
-25.2544 -6.40369 -2.19088
-25.8103 -6.39664 -3.02581
-25.2475 -6.32797 -2.2424
-25.7257 -5.88672 -1.77981
-25.0143 -5.06906 -2.19418
-25.6388 -5.99896 -1.81153
-25.9874 -4.08975 -2.9704
-25.5926 -6.60684 -2.5864
-24.7032 -5.29886 -2.78999
-25.259 -6.20825 -2.04942
-24.821 -5.3414 -2.93996
-25.2433 -6.38101 -2.36127
-24.7039 -5.77216 -2.54152
-25.2781 -4.74915 -2.82035
-24.8256 -5.94504 -2.20553
-25.1751 -6.27228 -2.43636
-24.8088 -5.94382 -2.34338
-24.8871 -6.05759 -2.54044
-25.8006 -6.37485 -2.9876
-25.8824 -4.13379 -2.83208
-24.6383 -5.69791 -2.75329
-24.6749 -5.78439 -2.49848
-25.1653 -6.18869 -2.03815
-24.8095 -5.85843 -2.23772
-25.8042 -6.16061 -1.80529
-24.9353 -6.02945 -2.20393
-24.5938 -5.71234 -2.38427
-25.021 -5.42563 -2.95868
-25.3059 -6.34824 -2.24598
-25.0067 -6.25735 -2.79739
-25.0615 -5.5173 -1.90582
-24.7536 -5.60898 -2.23879
-25.4854 -5.80576 -1.82263
-25.4328 -6.51447 -2.47723
-25.2571 -6.487 -2.62498
-24.9369 -6.07706 -2.59766
-25.4326 -6.33868 -2.02763
-24.667 -5.75513 -2.55637
-24.8534 -5.98724 -2.2289
-25.6988 -6.60745 -2.75215
-24.9987 -6.04324 -2.14531
-24.7575 -5.32907 -2.9599
-24.8032 -5.99817 -2.64645
-25.0864 -6.31906 -2.72215
-24.7679 -5.93973 -2.30189
-25.7872 -6.50186 -2.25087
-25.4827 -6.5936 -2.80994
-25.8265 -6.21399 -3.00603
-24.7922 -6.01987 -2.72899
-25.5284 -6.51712 -2.40873
-24.7009 -5.91434 -2.50171
-24.6398 -5.62616 -2.8048
-25.13 -6.13852 -2.05783
-25.4462 -6.50558 -2.34579
-24.7216 -5.72351 -2.54086
-24.837 -5.91409 -2.2893
-25.2048 -4.8093 -2.74815
-24.8591 -6.10172 -2.75923
-25.185 -6.23581 -2.25474
-24.7383 -5.23611 -2.95436
-24.9451 -6.0405 -2.19551
-24.706 -5.29529 -2.88741
-25.1961 -6.43475 -2.78549
-24.6948 -5.72891 -2.28265
-24.7512 -5.92511 -2.74596
-25.4098 -6.52551 -2.34225
-25.3205 -6.40836 -2.24358
-25.2651 -6.45706 -2.6132
-25.5886 -5.93381 -1.81829
-25.7522 -6.12997 -1.81973
-24.9569 -6.17041 -2.26546
-25.2983 -6.35641 -2.1936
-25.0999 -6.2048 -2.15814
-25.0758 -5.3793 -1.84005
-25.0984 -6.20801 -2.3885
-24.8432 -5.97177 -2.36697
-24.8379 -6.04474 -2.51823
-25.0098 -6.22891 -2.66378
-25.1528 -6.29324 -2.4457
-24.7036 -5.43631 -2.24036
-25.8765 -6.22006 -3.03248
-24.6541 -5.84653 -2.72461
-24.7113 -5.6398 -2.25471
-25.4011 -5.72519 -1.74563
-24.9693 -6.21823 -2.75018
-25.5993 -6.46075 -2.22479
-26.1904 -6.16992 -2.17469
-25.7842 -6.40057 -2.11747
-25.1435 -5.49173 -1.86994
-24.8688 -6.10519 -2.49502
-24.7971 -5.79349 -2.15992
-24.7728 -5.18277 -3.04818
-25.2048 -6.35278 -2.44474
-25.1234 -6.24612 -2.3026
-25.4227 -6.53705 -2.3114
-25.5648 -6.4545 -2.25113
-24.9785 -6.15103 -2.41514
-24.8903 -6.06958 -2.49957
-25.2149 -4.91888 -2.54957
-25.2109 -4.8956 -2.59328
-25.2338 -4.8942 -2.59663
-25.2339 -4.85229 -2.65778
-25.2119 -4.84937 -2.69788
-25.1741 -4.81696 -2.7749
-25.2728 -4.76477 -2.82556
-25.3474 -4.69098 -2.89044
-25.4404 -4.64856 -2.96316
-24.7548 -5.60013 -2.19643
-25.7095 -6.46295 -2.19611
-24.6807 -5.8638 -2.74333
-25.5658 -6.6001 -2.59868
-24.8338 -5.61374 -2.14808
-24.7964 -5.91168 -2.30008
-24.7647 -5.89731 -2.34493
-24.7676 -5.56125 -2.23988
-24.7627 -5.85873 -2.40306
-24.7557 -5.55652 -2.28835
-24.6631 -5.57553 -2.30048
-24.6639 -5.7952 -2.55102
-24.657 -5.77048 -2.60767
-24.6138 -5.76273 -2.63435
-25.2161 -4.8623 -2.64611
-25.2209 -4.82443 -2.69144
-24.6588 -5.3425 -2.73151
-24.7197 -5.26846 -2.8387
-25.3082 -4.71469 -2.84387
-24.7233 -5.25949 -2.89535
-24.7811 -5.20905 -2.91856
-24.7709 -5.19601 -2.94909
-24.7901 -5.16281 -3.00237
-24.8591 -5.1011 -3.08656
-25.5564 -6.51016 -2.20509
-24.8546 -5.47491 -2.06841
-25.5797 -4.40027 -2.80459
-25.6283 -6.46909 -2.19737
-25.6287 -5.59979 -1.77561
-25.3545 -5.67459 -1.80395
-25.5089 -6.44608 -2.25949
-25.3327 -5.66736 -1.82861
-25.4125 -6.44879 -2.31646
-25.0681 -5.34753 -1.89887
-25.1898 -6.36035 -2.59465
-24.8035 -5.94415 -2.2521
-24.7937 -5.66116 -2.14322
-24.745 -5.66336 -2.17874
-24.8008 -5.89984 -2.3416
-25.0954 -6.33197 -2.69335
-24.8086 -5.90192 -2.38756
-24.9406 -6.09219 -2.56749
-24.6397 -5.63565 -2.29216
-24.8499 -5.25604 -2.19937
-24.7709 -5.84512 -2.47159
-24.6967 -5.5925 -2.33477
-24.7019 -5.84451 -2.50351
-25.0821 -6.24158 -2.87257
-24.842 -6.05807 -2.6952
-24.6685 -5.84061 -2.5392
-24.6589 -5.81155 -2.59118
-24.6448 -5.79593 -2.63661
-24.8493 -5.12436 -2.43033
-24.7977 -6.01205 -2.80856
-24.6356 -5.75833 -2.68544
-24.6408 -5.4671 -2.59864
-24.6185 -5.75363 -2.73866
-24.6601 -5.43973 -2.63692
-25.7625 -4.26395 -2.64455
-24.6252 -5.72906 -2.77434
-24.6395 -5.70911 -2.80443
-24.6704 -5.35144 -2.79527
-25.9652 -4.04559 -2.88822
-26.1507 -3.9274 -2.96564
-24.7402 -5.21597 -3.00634
-25.7935 -6.12891 -1.82392
-24.9167 -6.05276 -2.43418
-25.8127 -6.35837 -3.05054
-25.8567 -6.35098 -3.10573
-25.7259 -6.22083 -2.00472
-25.5589 -6.4996 -2.24744
-25.3689 -5.7153 -1.80447
-25.519 -6.50327 -2.25209
-25.4578 -6.50845 -2.29786
-25.148 -5.45648 -1.81123
-25.1436 -6.25412 -2.27576
-25.3481 -6.43649 -2.46903
-25.0864 -6.25488 -2.32479
-24.9081 -6.01746 -2.25502
-24.816 -5.77127 -2.12349
-25.2013 -6.40964 -2.60292
-25.0658 -6.19089 -2.44182
-24.89 -5.99133 -2.30109
-24.8553 -5.73309 -2.16225
-24.81 -5.7406 -2.18099
-25.4699 -6.54538 -2.8446
-24.8598 -5.99557 -2.34038
-24.8246 -5.42566 -2.09819
-24.9628 -6.19571 -2.50843
-24.756 -5.75406 -2.24081
-24.8637 -5.95114 -2.40841
-24.7405 -5.72397 -2.25899
-25.0406 -6.12527 -2.58823
-25.1073 -6.30142 -2.49561
-24.6742 -5.72192 -2.3096
-25.8398 -6.30807 -3.09418
-25.124 -6.33792 -2.78274
-24.689 -5.69745 -2.34224
-24.748 -5.37692 -2.23915
-24.9315 -6.12701 -2.65469
-25.9147 -6.25903 -3.16135
-25.1358 -6.29956 -2.84827
-24.9178 -6.1167 -2.68266
-24.7547 -5.90457 -2.5481
-24.6501 -5.65829 -2.4946
-24.8569 -6.0853 -2.79045
-24.6909 -5.8714 -2.65301
-24.6195 -5.61371 -2.54223
-24.8645 -5.1459 -2.55421
-24.6238 -5.55112 -2.65231
-24.9464 -5.05734 -2.63084
-24.7053 -5.77194 -2.82742
-24.5921 -5.54242 -2.69174
-25.8066 -4.19824 -2.78713
-24.6217 -5.47327 -2.79627
-25.1466 -4.85626 -2.84986
-26.1431 -3.93216 -2.9753
-25.27 -4.76395 -2.91807
-24.7557 -5.35159 -2.94028
-24.7677 -5.30594 -2.99586
-24.7709 -5.28571 -3.03045
-24.8266 -6.0004 -2.60619
-25.4595 -6.50839 -2.44422
-24.9713 -6.14462 -2.33194
-25.5155 -5.80713 -1.79759
-25.6115 -6.55435 -2.3024
-25.2523 -6.1304 -2.05663
-25.267 -5.54312 -1.81839
-25.0555 -6.15982 -2.18793
-25.2044 -6.31525 -2.37563
-25.0087 -6.15582 -2.24758
-25.1592 -6.3172 -2.3993
-24.9961 -6.11942 -2.29724
-25.2959 -6.49326 -2.58197
-24.9777 -6.10431 -2.30606
-25.3201 -6.47009 -2.63417
-24.965 -6.11026 -2.35303
-24.8103 -5.90005 -2.18911
-24.8368 -5.60294 -2.0863
-25.2462 -6.4696 -2.64202
-25.729 -6.51886 -2.91002
-25.2382 -6.47778 -2.67656
-25.0749 -6.26212 -2.54183
-25.8344 -6.45142 -2.96773
-25.0929 -6.26825 -2.55541
-24.9175 -6.07574 -2.40138
-24.8061 -5.86572 -2.29134
-25.8329 -6.43594 -2.99795
-25.0705 -6.25616 -2.58018
-24.7772 -5.84888 -2.30331
-25.8519 -6.40073 -3.05204
-25.0361 -5.07254 -2.16928
-24.7521 -5.81064 -2.40275
-24.6913 -5.55673 -2.27106
-25.0033 -5.04538 -2.24289
-25.9523 -6.30887 -3.1599
-25.2397 -6.37558 -2.85068
-25.8658 -6.33646 -3.16534
-24.8554 -6.00247 -2.57991
-24.9524 -6.19199 -2.79031
-24.7699 -5.98154 -2.68483
-24.7658 -5.96555 -2.69776
-24.6989 -5.71124 -2.58997
-25.3301 -4.67731 -2.56413
-24.7615 -5.95413 -2.77977
-24.7569 -5.8992 -2.79553
-25.4843 -4.5289 -2.67422
-24.7876 -5.90414 -2.8369
-25.5545 -4.45001 -2.74353
-24.6955 -5.30481 -2.69982
-24.655 -5.63724 -2.79704
-24.6901 -5.58008 -2.84789
-25.0101 -5.35956 -2.97081
-25.1427 -5.25778 -3.04057
-24.9427 -5.03571 -2.95166
-24.9953 -4.96338 -3.03218
-24.7266 -5.49005 -2.22746
-25.0914 -6.19876 -2.22669
-25.5984 -6.42392 -2.19259
-25.3204 -5.69693 -1.79908
-25.5538 -6.42303 -2.2294
-25.5211 -6.40671 -2.28334
-25.109 -5.45886 -1.81762
-25.2331 -6.38416 -2.55668
-25.3693 -6.56326 -2.73737
-24.8719 -6.02502 -2.29359
-24.798 -5.45523 -2.14415
-25.3695 -6.51999 -2.81588
-24.9893 -6.18054 -2.51735
-25.3804 -6.49704 -2.84895
-24.7107 -5.76022 -2.29506
-25.0157 -6.12775 -2.58583
-24.7094 -5.73212 -2.34259
-24.7537 -5.96738 -2.49792
-24.7084 -5.71344 -2.37439
-24.7462 -5.94681 -2.53997
-24.7033 -5.88422 -2.68693
-24.6933 -5.87369 -2.71452
-25.0441 -4.9549 -2.68623
-25.1223 -4.87424 -2.74049
-25.3848 -4.64722 -2.85072
-24.6185 -5.51471 -2.79406
-25.3967 -6.47348 -2.44062
-25.2534 -5.62778 -1.80334
-25.3453 -6.41953 -2.20218
-25.3117 -6.38821 -2.285
-25.2576 -6.40894 -2.30169
-25.7496 -6.61899 -2.68699
-25.7114 -6.62567 -2.709
-25.232 -6.36108 -2.40503
-25.054 -6.18906 -2.27904
-24.8932 -5.98642 -2.18991
-25.009 -6.1749 -2.34618
-25.6354 -6.5863 -2.84602
-25.1231 -6.35635 -2.51679
-25.1179 -6.34229 -2.54537
-24.8168 -5.95746 -2.31345
-25.8038 -6.41751 -2.99432
-24.7182 -5.70413 -2.24039
-24.9006 -6.14389 -2.50431
-25.262 -6.43896 -2.83814
-25.2881 -6.40289 -2.87657
-25.0248 -6.2247 -2.83545
-24.7082 -5.85562 -2.54539
-24.6857 -5.86639 -2.59472
-25.0685 -4.89172 -2.51722
-24.6688 -5.86139 -2.62048
-24.6415 -5.57413 -2.52448
-24.8011 -6.03998 -2.77704
-24.6654 -5.84525 -2.65023
-25.9499 -4.05231 -2.82763
-24.6718 -5.74973 -2.79886
-24.641 -5.40939 -2.78494
-24.8685 -5.10016 -3.02871
-25.3656 -5.62775 -1.76713
-25.6463 -5.99673 -1.83381
-25.6449 -5.66364 -1.75159
-25.774 -6.43167 -2.19167
-25.6425 -6.47678 -2.2534
-25.1934 -5.57907 -1.79161
-25.5421 -6.51617 -2.29292
-25.1859 -5.56296 -1.82274
-25.4069 -6.48798 -2.47657
-25.2534 -6.55594 -2.52639
-25.1464 -6.34799 -2.39624
-24.8444 -5.95621 -2.18593
-25.2906 -6.47073 -2.5955
-24.9498 -6.10574 -2.3959
-25.483 -6.5737 -2.84288
-24.7992 -5.85788 -2.34858
-24.7836 -5.85687 -2.38746
-25.0357 -6.25851 -2.64471
-24.8512 -6.10944 -2.52496
-24.9696 -6.23523 -2.76898
-24.9897 -6.1954 -2.8105
-24.9829 -6.1806 -2.84152
-24.7961 -6.02109 -2.69551
-24.6887 -5.81619 -2.5862
-24.6082 -5.53986 -2.51851
-24.7659 -6.01059 -2.74417
-24.6164 -5.814 -2.65453
-24.7802 -5.96786 -2.82318
-24.6122 -5.7908 -2.68863
-24.6429 -5.41193 -2.66341
-24.6839 -5.32495 -2.74187
-24.7142 -5.271 -2.78484
-24.9729 -5.33694 -2.9796
-24.8882 -5.37448 -3.02107
-24.8776 -5.36288 -3.05087
-24.9229 -5.29498 -3.10107
-25.125 -5.14383 -3.0942
-25.7355 -5.8996 -1.75085
-25.7324 -6.1897 -1.9152
-25.7196 -6.43921 -2.13253
-25.4057 -5.75159 -1.77317
-25.6597 -6.46054 -2.13853
-25.3625 -6.35452 -2.09843
-25.1878 -5.51514 -1.78611
-25.1534 -5.5144 -1.79598
-25.3117 -6.36127 -2.14657
-25.2606 -6.36337 -2.20383
-25.2241 -6.35147 -2.25584
-25.1026 -6.16623 -2.11507
-25.5654 -6.58063 -2.6566
-25.2879 -6.50082 -2.53952
-24.8311 -5.64371 -2.05318
-25.1227 -6.30627 -2.44493
-25.0577 -6.3158 -2.5265
-24.7752 -5.90472 -2.32036
-24.6939 -5.61441 -2.23981
-25.1743 -6.44293 -2.74064
-25.1778 -6.41727 -2.77511
-24.8727 -6.05438 -2.54697
-24.6987 -5.7619 -2.5997
-24.8577 -5.39011 -2.91774
-24.8468 -5.33975 -2.99981
-24.8503 -5.26398 -3.04735
-25.792 -6.14545 -1.83931
-25.7269 -6.1698 -1.88646
-25.628 -5.92712 -1.76524
-25.6122 -5.91901 -1.79478
-25.275 -6.3877 -2.15182
-25.0831 -5.50375 -1.86407
-25.2032 -6.32318 -2.33504
-25.3041 -6.50967 -2.50684
-25.2631 -6.51367 -2.53461
-25.2619 -6.49789 -2.5897
-24.7271 -5.64206 -2.1529
-24.7055 -5.61298 -2.21899
-25.2035 -6.41452 -2.74123
-24.8782 -6.11014 -2.46358
-24.7917 -5.79599 -2.42638
-25.2013 -6.35327 -2.82702
-24.8013 -6.03598 -2.65289
-24.9866 -6.15567 -2.80809
-24.6465 -5.43387 -2.50267
-24.7985 -5.97244 -2.73667
-24.791 -5.94998 -2.77874
-24.6107 -5.42361 -2.56036
-24.7923 -5.91141 -2.80365
-24.7961 -5.418 -2.87862
-24.8138 -5.30533 -2.99281
-24.8648 -5.17349 -3.08804
-25.7599 -6.14566 -1.84715
-25.5574 -5.96957 -1.76951
-25.5556 -5.94589 -1.79848
-25.7103 -6.40384 -2.13213
-25.6075 -6.47 -2.15643
-25.5902 -6.49683 -2.1796
-25.3431 -6.36508 -2.12263
-25.2982 -6.38412 -2.15771
-25.1647 -6.19901 -2.02
-25.1106 -6.15231 -2.13507
-25.0643 -6.19287 -2.15345
-25.045 -6.19235 -2.17973
-25.3941 -6.45639 -2.47604
-25.317 -6.47507 -2.55072
-24.8661 -5.51825 -2.09178
-24.8251 -5.89651 -2.25195
-24.7653 -5.49893 -2.19198
-24.758 -5.39453 -2.89845
-25.5475 -5.90036 -1.79237
-25.1538 -6.16809 -2.03686
-24.9233 -5.94397 -2.06597
-24.8789 -5.91574 -2.15196
-24.8298 -5.48489 -2.09307
-25.1339 -6.27267 -2.49027
-24.7474 -5.74875 -2.48316
-24.631 -5.66458 -2.71564
-25.2075 -5.03351 -3.09304
-24.7168 -5.41217 -2.8354
-24.7491 -5.3107 -2.88653
-25.9244 -6.19333 -1.97136
-25.6959 -5.61716 -1.72613
-25.5018 -5.85382 -1.79115
-25.7375 -6.37869 -2.0491
-25.9897 -6.36792 -2.24775
-25.9066 -6.44064 -2.28716
-25.6605 -6.40836 -2.12511
-25.8243 -6.5488 -2.29044
-25.4162 -6.30573 -2.03395
-24.9423 -6.08014 -2.36103
-24.6824 -5.74017 -2.47907
-24.675 -5.71478 -2.50899
-24.6509 -5.69992 -2.553
-24.7622 -5.81104 -2.82596
-24.9423 -5.3519 -2.96708
-24.9126 -5.3699 -2.99144
-24.8995 -5.29889 -3.06745
-25.8747 -6.21399 -1.89579
-25.8756 -6.45877 -2.21554
-25.8726 -6.41949 -2.2528
-25.7611 -6.55301 -2.29156
-25.5407 -6.42114 -2.18774
-25.3535 -6.27853 -2.04531
