-25.5115 -27.8225 -2.81463
-23.6109 -25.3359 -2.82589
-24.9009 -26.753 -1.93568
-24.4215 -26.0504 -2.70121
-23.6195 -25.4181 -2.86779
-24.2943 -25.9525 -2.39542
-23.568 -25.6596 -2.16462
-23.498 -25.6259 -2.65207
-23.341 -25.2513 -2.30601
-25.5798 -27.0727 -2.81235
-23.1369 -25.7591 -2.17416
-23.7911 -25.5031 -2.48615
-24.6653 -26.7756 -1.68473
-25.1235 -28.1492 -2.61399
-24.7737 -26.4457 -2.18241
-22.7941 -26.1534 -2.20716
-24.0535 -26.3665 -1.7056
-25.5031 -27.0617 -2.34821
-25.5809 -27.2923 -2.1189
-23.613 -25.4376 -2.97536
-22.8238 -25.0465 -2.60068
-25.3738 -26.9461 -2.33588
-25.4913 -26.9645 -2.79675
-25.1915 -26.826 -2.1554
-24.7726 -27.8796 -1.75912
-25.3312 -27.0012 -3.04385
-23.6792 -26.7587 -1.72883
-22.5473 -26.0513 -2.27713
-22.8869 -25.3518 -2.27433
-25.5777 -27.0249 -2.85202
-25.0814 -26.6305 -2.77659
-24.9209 -26.4911 -2.4944
-22.6484 -25.3613 -2.34257
-24.9466 -26.9046 -1.73979
-24.2765 -25.9893 -2.65175
-24.4851 -26.083 -2.8705
-23.9147 -25.6735 -2.25741
-23.3188 -25.1832 -2.72101
-22.3737 -25.3994 -2.55651
-25.014 -28.1116 -2.16056
-23.4559 -25.2624 -2.49575
-24.8339 -26.4184 -2.35683
-23.7574 -25.4264 -2.81519
-24.284 -26.5717 -1.66185
-23.214 -25.0389 -2.69934
-23.5631 -25.3389 -2.38025
-24.4761 -26.373 -1.98306
-24.1487 -25.8195 -2.35236
-25.7003 -27.3716 -2.84895
-23.2693 -25.6434 -2.16438
-22.4305 -25.5469 -2.36648
-25.1013 -26.7565 -2.14605
-23.6942 -25.3933 -2.80355
-23.5696 -25.3099 -2.9043
-23.2626 -25.2114 -2.82221
-23.7107 -25.3913 -2.64447
-23.1926 -25.0247 -2.64018
-25.4365 -26.9036 -2.85812
-24.356 -26.0175 -2.29324
-23.3975 -25.2805 -2.31429
-23.327 -25.2826 -2.62566
-23.2309 -25.0732 -2.52884
-25.3456 -26.9226 -2.24162
-24.9695 -26.5891 -2.2438
-25.1521 -26.7136 -2.3481
-24.6821 -27.5906 -1.72557
-25.7441 -27.3955 -2.63162
-23.9736 -26.4519 -1.70214
-23.1544 -25.1587 -2.34663
-25.1406 -26.9057 -2.6777
-25.6485 -27.2845 -2.63167
-25.168 -26.7948 -2.70244
-25.6428 -27.1326 -2.79207
-25.3398 -26.8138 -2.89927
-24.317 -25.9602 -2.59586
-23.6504 -26.8477 -1.72886
-25.422 -27.0943 -2.13007
-23.9186 -25.692 -2.23335
-22.4987 -25.4551 -2.35435
-23.0893 -26.0177 -2.15174
-23.7019 -25.6057 -2.15499
-22.7898 -25.7993 -2.22748
-25.568 -27.2918 -2.12643
-25.0547 -26.795 -2.091
-22.9948 -25.1435 -2.49561
-25.1744 -26.7442 -2.33352
-23.5475 -25.264 -2.84649
-24.4433 -26.1151 -2.24311
-25.2125 -27.6445 -1.9324
-23.4326 -25.663 -2.17225
-25.4217 -26.9173 -2.99516
-24.4238 -26.0405 -2.48509
-24.0244 -27.1578 -1.70641
-23.8602 -25.7048 -2.14623
-24.4715 -26.0875 -2.61639
-22.925 -25.1514 -2.43473
-25.4639 -26.9723 -3.00062
-25.1081 -28.0505 -2.16855
-24.5681 -26.261 -2.11617
-23.9036 -25.6161 -2.40158
-24.7259 -26.2639 -2.55389
-23.4772 -25.5228 -2.76215
-25.4706 -27.0647 -2.2467
-24.3054 -26.0218 -2.20853
-23.4144 -25.2641 -2.56771
-23.0295 -26.1271 -2.14786
-25.3163 -26.91 -2.55823
-24.5818 -26.3977 -1.8973
-24.5752 -26.1978 -2.34734
-23.5083 -25.5928 -2.77178
-23.5031 -25.168 -3.09445
-23.3975 -25.252 -2.341
-25.3293 -27.9673 -2.29539
-23.8442 -25.6767 -2.15945
-24.2784 -26.5369 -1.66443
-22.9668 -26.7405 -2.0784
-25.4724 -27.2532 -2.04239
-23.5057 -25.3622 -2.5101
-22.6161 -25.094 -2.86465
-23.0614 -25.179 -2.31744
-23.9608 -25.6513 -2.54443
-25.3995 -27.1658 -1.9944
-24.9141 -26.5118 -2.3441
-22.7526 -26.2173 -2.21355
-23.0008 -25.7568 -2.19517
-24.2398 -25.8548 -2.84961
-22.4082 -25.4696 -2.40345
-24.7053 -26.3102 -2.39701
-23.6337 -25.4691 -2.26108
-23.3279 -25.4283 -2.21791
-25.1681 -26.8233 -2.10641
-25.373 -27.9134 -2.3305
-23.4539 -25.2007 -2.68835
-22.8184 -25.269 -2.31533
-23.8389 -25.5016 -2.59884
-23.0452 -25.4055 -2.24306
-25.0671 -26.6565 -2.28934
-23.1235 -25.5098 -2.21465
-24.3981 -26.4948 -1.74467
-25.4084 -27.2532 -1.94199
-24.4355 -26.8578 -1.67251
-25.1001 -26.8886 -2.03427
-23.1198 -25.6072 -2.19726
-24.3465 -26.1058 -2.13984
-24.4601 -26.1082 -2.29695
-23.9838 -25.6706 -2.53838
-22.8348 -25.6703 -2.23505
-23.5094 -25.2752 -2.76909
-23.0996 -25.6562 -2.19115
-23.8762 -26.7149 -1.69697
-24.6507 -26.2969 -2.23973
-22.6873 -25.821 -2.25868
-22.8938 -25.2998 -2.2933
-23.0677 -26.0722 -2.15156
-24.6157 -26.2944 -2.19054
-23.4716 -25.1701 -3.03931
-23.605 -25.3659 -2.55758
-24.5013 -26.2142 -2.92629
-22.7464 -25.763 -2.24667
-23.1454 -25.2516 -2.29176
-23.2992 -25.8829 -2.11471
-25.425 -27.2815 -2.68213
-23.3739 -25.2224 -2.5126
-24.2822 -26.4446 -1.71207
-25.108 -26.9102 -2.00224
-24.8924 -26.6447 -2.0625
-25.4679 -27.0192 -2.46793
-25.3924 -27.2421 -1.91415
-22.627 -25.1359 -2.60641
-22.6926 -25.5179 -2.28296
-23.9883 -25.8985 -1.92839
-25.4949 -27.06 -2.8072
-25.6926 -27.4669 -2.51295
-23.2693 -25.0536 -2.75158
-23.8265 -25.516 -2.55152
-23.7197 -26.8604 -1.72174
-24.0234 -25.6731 -2.08643
-22.7489 -25.1594 -2.39574
-23.7068 -25.7503 -2.08018
-25.7396 -27.3436 -2.69364
-24.5668 -26.1839 -2.37424
-25.2876 -26.9115 -2.93654
-24.2023 -25.9997 -2.13375
-25.5941 -27.1772 -2.30884
-25.0412 -26.7188 -2.10062
-23.3147 -25.1647 -2.39461
-24.138 -25.9661 -2.12866
-25.5522 -27.0519 -2.64456
-24.1207 -25.8377 -2.27544
-25.0445 -26.8133 -1.89429
-25.2428 -27.0173 -1.9497
-24.5032 -26.1011 -2.59105
-24.9441 -26.4676 -2.75058
-25.6051 -27.7055 -2.74821
-22.7349 -25.6664 -2.26208
-23.8649 -25.8102 -1.954
-25.5938 -27.1008 -2.49064
-25.6174 -27.4173 -2.20948
-25.1528 -26.748 -2.73081
-23.7293 -26.7403 -1.71249
-25.141 -27.1075 -1.75166
-24.7009 -26.7379 -1.69286
-23.4628 -25.3592 -3.00105
-25.5915 -27.1607 -2.34591
-24.289 -26.5573 -1.67218
-25.2552 -26.8146 -2.35214
-23.7511 -26.9858 -1.72414
-24.6535 -26.2481 -2.53718
-25.2892 -27.1088 -1.90747
-23.7211 -25.4402 -2.75048
-23.2929 -25.0919 -2.75957
-23.5532 -25.3066 -2.55221
-24.6789 -26.3329 -2.89979
-23.7862 -25.487 -2.80296
-22.4637 -25.2989 -2.54047
-24.694 -26.9909 -1.68429
-22.6882 -25.0925 -2.68478
-23.6013 -25.4215 -2.2643
-25.419 -26.9168 -2.64663
-23.7129 -26.3318 -1.76894
-23.4273 -25.2127 -2.42805
-24.4893 -26.9286 -1.6818
-24.5899 -26.3953 -2.02777
-25.3084 -26.7668 -3.01163
-22.3177 -25.4428 -2.66133
-23.5304 -26.9515 -1.7475
-25.1109 -26.6599 -2.48662
-23.9943 -25.6426 -2.84577
-25.157 -26.7088 -2.43948
-24.0762 -25.7526 -2.69975
-22.9158 -25.9585 -2.19129
-25.7286 -27.4589 -2.72889
-24.5436 -26.1095 -2.55422
-24.5926 -26.4176 -2.00577
-23.7837 -25.4674 -2.72798
-24.3028 -25.9957 -2.24263
-22.8112 -25.6523 -2.23231
-23.2732 -26.4443 -1.93338
-25.4141 -26.8668 -3.06367
-25.0262 -26.6626 -2.47456
-24.6799 -26.6415 -1.76505
-24.9751 -26.9041 -1.78102
-23.6932 -25.369 -2.69621
-25.1028 -26.6161 -2.52582
-23.1681 -25.104 -2.37466
-24.0088 -25.6959 -2.44122
-23.4617 -25.4386 -2.2334
-24.8983 -26.4545 -2.84775
-24.7473 -26.3264 -2.78959
-24.2611 -26.8548 -1.68285
-22.5376 -26.1052 -2.27839
-25.5133 -27.0085 -2.76806
-24.6393 -26.3477 -2.10298
-24.1008 -25.7704 -2.70033
-25.3445 -27.0717 -2.755
-24.6098 -27.0213 -1.68479
-24.9224 -26.6882 -2.09373
-23.2384 -25.4427 -2.21661
-25.3929 -27.7159 -2.14314
-24.667 -26.2828 -2.63661
-23.6646 -25.7782 -2.06217
-23.4568 -25.2077 -2.82462
-23.0507 -26.1039 -2.1456
-24.2057 -25.8478 -2.79091
-23.2966 -25.1652 -2.34962
-24.3648 -26.4072 -2.1473
-22.8342 -26.2927 -2.20794
-24.4223 -26.1427 -2.17898
-23.2619 -25.3149 -2.26135
-24.1975 -26.9916 -1.69528
-24.1343 -27.1659 -1.689
-24.9845 -26.5695 -2.35357
-22.9669 -25.1219 -2.36281
-24.3403 -27.6509 -1.73864
-24.3111 -26.045 -2.18624
-25.6738 -27.5469 -2.57267
-25.5897 -27.5396 -2.18546
-25.5349 -27.8228 -2.79008
-23.8084 -25.5487 -2.34296
-24.1015 -26.5489 -1.68502
-24.4478 -26.0596 -2.69666
-23.7569 -25.4254 -2.84233
-24.3755 -25.9843 -2.6885
-23.6021 -25.5102 -2.20194
-22.9575 -26.2447 -2.15953
-25.1392 -27.0163 -1.83237
-23.8463 -25.5967 -2.29129
-24.6917 -27.3905 -1.70166
-24.5825 -27.6497 -1.73981
-22.8013 -25.7038 -2.23162
-22.9773 -26.2057 -2.16239
-22.8931 -25.9973 -2.19503
-22.402 -25.7435 -2.35058
-24.0172 -25.6867 -2.08735
-24.4744 -27.3534 -1.70374
-23.7103 -25.5494 -2.70393
-25.1503 -26.7032 -2.79139
-23.2632 -25.0464 -2.89053
-22.9532 -25.1254 -2.3961
-23.2412 -25.1122 -2.95175
-24.4856 -26.0794 -2.84358
-22.7088 -26.1109 -2.23415
-23.4102 -25.1494 -2.79423
-25.5696 -27.7611 -2.73599
-24.7086 -26.9583 -1.68289
-24.7042 -26.2629 -2.84375
-24.9607 -26.5581 -2.29557
-23.8983 -25.6007 -2.4439
-23.8966 -25.573 -2.64237
-22.4681 -25.3091 -2.86295
-25.7213 -27.2661 -2.69547
-25.556 -27.3559 -2.10804
-23.0816 -25.7121 -2.18834
-25.4992 -27.0015 -2.78885
-24.6673 -27.8573 -1.76325
-24.3032 -25.9974 -2.58138
-24.3115 -25.9465 -2.44727
-24.653 -26.216 -2.55858
-22.3384 -25.4749 -2.5188
-22.7177 -25.1653 -2.41241
-24.4584 -26.4565 -1.74333
-25.7165 -27.3582 -2.45022
-24.3792 -25.9942 -2.76083
-23.4279 -25.1995 -2.71061
-24.8681 -26.4586 -2.39172
-23.8111 -25.6254 -2.21488
-23.73 -25.6439 -2.76942
-25.4876 -27.3009 -2.85226
-24.2505 -27.562 -1.73962
-24.8288 -26.5543 -2.94426
-23.752 -27.011 -1.7179
-24.549 -27.3862 -1.7173
-24.8622 -26.4519 -2.44523
-23.6339 -25.5797 -2.16497
-25.0009 -26.7618 -2.09517
-22.8053 -25.0384 -2.69122
-23.8458 -26.937 -1.7069
-24.5354 -26.1231 -2.74593
-25.5621 -27.0047 -2.9987
-24.7048 -26.3034 -2.64722
-25.2003 -27.1133 -1.80982
-24.9714 -26.5454 -2.39838
-24.8523 -27.2594 -1.70033
-23.0899 -25.7994 -2.17939
-23.8852 -26.8171 -1.69518
-24.2635 -26.6023 -2.14043
-23.8548 -25.5553 -2.54353
-25.5364 -27.0816 -2.58977
-24.8442 -27.0468 -1.68689
-23.6213 -25.6241 -2.69763
-23.6693 -25.3947 -2.94768
-23.0626 -25.0019 -2.5924
-24.6475 -26.2289 -2.45662
-23.9961 -25.6637 -2.79946
-22.8458 -25.7504 -2.22851
-25.0924 -26.6464 -2.77911
-22.9539 -25.134 -2.3891
-24.9632 -26.5071 -2.53725
-23.5211 -26.5177 -1.76865
-25.2259 -26.7397 -2.89435
-22.9378 -25.0321 -2.5348
-24.8751 -28.2207 -2.18301
-25.1925 -26.8748 -2.11446
-25.0452 -26.9627 -1.783
-24.9046 -26.5088 -2.88617
-25.242 -26.8994 -2.13501
-23.6058 -25.3101 -2.88776
-24.6694 -26.4076 -2.0986
-22.9647 -25.4015 -2.26096
-24.9753 -26.6563 -2.14849
-25.3368 -27.9319 -2.60855
-24.2012 -26.63 -2.26408
-22.5724 -25.1924 -2.93168
-25.0476 -27.0052 -1.73389
-24.7098 -26.3033 -2.54379
-22.6347 -25.1239 -2.63336
-24.3899 -27.0125 -1.68295
-24.1546 -25.8683 -2.24933
-25.5679 -27.1057 -2.66419
-25.6243 -27.0998 -2.96368
-23.9696 -25.9015 -1.95431
-25.3768 -26.8977 -2.56078
-25.2299 -27.8609 -2.0502
-24.254 -26.3623 -1.6903
-24.0114 -25.697 -2.65058
-24.157 -26.8037 -1.68221
-25.339 -26.8628 -2.39388
-22.8361 -25.7645 -2.21876
-24.9604 -27.1082 -1.69633
-24.2558 -25.8642 -2.74632
-23.215 -25.1695 -2.72598
-25.3632 -26.9076 -2.89581
-25.5302 -27.0843 -2.39082
-24.2244 -25.8858 -2.44574
-24.5407 -27.3089 -1.70012
-23.6629 -26.7927 -1.72335
-25.6101 -27.0863 -2.88244
-23.0424 -26.063 -2.18446
-24.3661 -25.9898 -2.64823
-24.0328 -25.7235 -2.39256
-25.3238 -26.9893 -2.13029
-25.4878 -26.9639 -2.84141
-24.5722 -27.7181 -1.73912
-23.5523 -25.2916 -2.85345
-24.4748 -27.4578 -1.71198
-23.9563 -25.7585 -2.1625
-23.3958 -25.247 -2.79218
-24.805 -27.9063 -1.84822
-25.2707 -27.0391 -1.97775
-22.7554 -25.5984 -2.26189
-23.4144 -25.1834 -2.82725
-22.976 -25.5163 -2.23269
-24.974 -26.5326 -2.55746
-25.6656 -27.2521 -2.38665
-22.7997 -25.0468 -2.79762
-22.6283 -25.1474 -2.81018
-22.8173 -25.0583 -2.74774
-22.6584 -25.1101 -2.75114
-22.4427 -25.3125 -2.8085
-22.8364 -25.0669 -2.69602
-22.7029 -25.0873 -2.65126
-22.516 -25.224 -2.67445
-22.8502 -25.049 -2.65086
-22.5235 -25.2232 -2.65715
-22.2596 -25.5283 -2.75157
-22.7244 -25.1009 -2.59364
-22.284 -25.4891 -2.71516
-22.5552 -25.1961 -2.59522
-22.3037 -25.4592 -2.68517
-22.8444 -25.1376 -2.65057
-22.3327 -25.4251 -2.63604
-22.5825 -25.1779 -2.53997
-22.3634 -25.395 -2.5816
-22.5973 -25.1776 -2.50609
-22.604 -25.1861 -2.48714
-22.3979 -25.3936 -2.50563
-22.4279 -25.3567 -2.45666
-22.4194 -25.397 -2.45693
-22.8029 -25.1213 -2.40218
-22.6543 -25.2094 -2.40758
-22.4342 -25.3779 -2.43343
-22.4389 -25.4157 -2.40148
-22.8114 -25.1352 -2.37771
-22.6416 -25.2675 -2.3695
-22.8157 -25.2143 -2.34027
-22.4434 -25.4945 -2.36175
-22.9706 -25.1594 -2.33772
-22.8034 -25.2417 -2.33832
-22.4191 -25.6094 -2.36369
-22.9788 -25.1797 -2.31831
-22.9824 -25.2099 -2.3016
-22.6369 -25.4544 -2.30684
-22.9854 -25.2542 -2.28214
-22.811 -25.3981 -2.28847
-22.608 -25.5556 -2.30196
-22.8192 -25.4467 -2.27705
-22.983 -25.3184 -2.26968
-22.6164 -25.7042 -2.27575
-22.799 -25.553 -2.25553
-23.0051 -25.4154 -2.24602
-22.5907 -25.7953 -2.28157
-22.9766 -25.4586 -2.24535
-22.8007 -25.6134 -2.2416
-22.5657 -25.902 -2.2794
-22.9975 -25.4943 -2.22885
-22.5524 -25.9524 -2.28249
-22.5636 -26.0003 -2.27751
-22.9712 -25.6007 -2.21975
-22.7779 -25.8229 -2.22528
-22.7523 -25.9072 -2.22579
-22.749 -26.0562 -2.22559
-22.7369 -26.1451 -2.21469
-22.8779 -26.6566 -2.16266
-25.4672 -27.1983 -2.08737
-24.5593 -27.2043 -1.68963
-24.4531 -26.0672 -2.44461
-24.3957 -26.941 -1.68256
-24.6402 -27.877 -1.77417
-25.73 -27.2773 -2.65818
-25.2514 -28.1472 -2.73545
-23.6117 -25.3333 -2.64581
-25.2915 -27.0342 -3.05412
-24.2735 -25.9202 -2.59522
-24.8738 -26.4501 -2.75457
-24.2792 -25.9846 -2.25942
-24.3847 -26.804 -1.67993
-25.5308 -27.1755 -2.15951
-25.6939 -27.2787 -2.4201
-24.9696 -28.2654 -2.61061
-23.301 -25.1355 -2.47778
-22.663 -25.095 -2.89307
-23.0243 -24.9644 -2.86254
-23.1471 -25.0097 -2.88176
-23.162 -24.9777 -2.86286
-22.7043 -25.0866 -2.84279
-23.1864 -25.2335 -3.02199
-22.4736 -25.2634 -2.88438
-23.1452 -25.0425 -2.86663
-23.043 -25.0182 -2.80523
-23.4064 -25.102 -2.89704
-23.295 -25.0384 -2.84373
-22.696 -25.1578 -2.81174
-23.1575 -25.0194 -2.79715
-22.7446 -25.082 -2.75403
-23.4979 -25.1949 -2.96205
-22.7524 -25.0656 -2.73076
-23.3117 -25.028 -2.8057
-23.1871 -25.0294 -2.79426
-23.3096 -25.0541 -2.79694
-23.208 -25.0382 -2.74548
-23.4072 -25.5023 -3.08213
-23.2758 -25.156 -2.82952
-22.615 -25.137 -2.64047
-23.432 -25.4506 -3.03619
-23.2876 -25.1654 -2.79395
-22.9786 -25.0008 -2.6077
-22.6523 -25.122 -2.59255
-22.345 -25.3996 -2.7119
-23.0019 -25.0034 -2.59229
-23.3081 -25.17 -2.74815
-23.1122 -25.0138 -2.58897
-22.846 -25.042 -2.57939
-23.5084 -25.2589 -2.84116
-23.3263 -25.1664 -2.69931
-23.4465 -25.1595 -2.73369
-22.6842 -25.1271 -2.52549
-22.441 -25.3098 -2.57891
-23.548 -25.2494 -2.79041
-23.563 -25.3054 -2.79671
-23.2659 -25.0897 -2.58751
-22.7158 -25.1492 -2.44476
-23.5526 -25.2625 -2.74397
-22.6961 -25.1912 -2.45719
-23.4667 -25.2157 -2.64628
-23.3411 -25.2402 -2.62202
-23.0038 -25.1344 -2.46906
-23.4733 -25.2418 -2.64079
-23.5025 -25.2172 -2.59061
-23.3783 -25.1789 -2.56065
-22.5191 -25.3544 -2.38958
-23.4032 -25.1638 -2.52796
-23.0504 -25.0824 -2.39701
-22.7396 -25.1913 -2.37495
-23.2888 -25.1248 -2.46979
-23.0251 -25.1648 -2.40425
-22.7356 -25.2122 -2.36306
-23.3036 -25.1465 -2.44308
-22.5187 -25.4081 -2.36217
-23.2166 -25.0976 -2.3917
-23.4987 -25.2989 -2.54044
-23.212 -25.1493 -2.34752
-22.7115 -25.364 -2.31259
-23.0661 -25.2108 -2.30434
-22.4748 -25.5533 -2.34224
-23.396 -25.218 -2.40154
-23.3199 -25.2004 -2.34272
-22.4458 -25.6452 -2.34889
-23.0654 -25.2597 -2.27927
-23.4516 -25.2621 -2.35493
-23.3342 -25.2203 -2.31923
-22.883 -25.3762 -2.26811
-23.5631 -25.304 -2.39577
-22.8761 -25.4048 -2.26539
-22.6689 -25.557 -2.27656
-22.8706 -25.4516 -2.26164
-23.0497 -25.3582 -2.2516
-22.6625 -25.6068 -2.27467
-23.4583 -25.2902 -2.33863
-22.6412 -25.6531 -2.2719
-23.5705 -25.3602 -2.34886
-23.1957 -25.3536 -2.24348
-23.0311 -25.4513 -2.23154
-22.8489 -25.6054 -2.23428
-23.3381 -25.3535 -2.2505
-23.5857 -25.3663 -2.35068
-23.4651 -25.348 -2.28171
-23.6729 -25.4837 -2.40278
-23.7054 -25.4486 -2.39107
-23.5953 -25.4078 -2.29428
-23.3447 -25.3958 -2.23241
-23.7011 -25.4649 -2.34401
-23.3436 -25.4153 -2.20932
-23.0087 -25.6046 -2.21383
-22.5007 -26.0739 -2.29086
-23.0032 -25.7133 -2.19845
-23.1685 -25.6 -2.18338
-22.9778 -25.7299 -2.1941
-22.9699 -25.7668 -2.19113
-22.6656 -26.1886 -2.2426
-22.6506 -26.2416 -2.24291
-23.3113 -25.6125 -2.16422
-23.6075 -25.5418 -2.18381
-23.3108 -25.7045 -2.15464
-23.1222 -25.8533 -2.16026
-22.8858 -26.1039 -2.18874
-23.6045 -25.5576 -2.16378
-23.2936 -25.8012 -2.15017
-22.8795 -26.1493 -2.17841
-23.755 -25.5993 -2.19292
-25.4288 -26.9695 -2.90533
-23.2267 -26.8846 -1.87402
-23.2337 -26.8883 -1.85991
-23.5112 -26.5939 -1.76497
-23.8977 -26.1653 -1.75617
-23.5047 -26.6998 -1.75553
-23.4873 -26.7833 -1.7543
-23.6496 -26.956 -1.73454
-25.1139 -26.7943 -2.13299
-24.4923 -26.4012 -1.93229
-24.5585 -26.2477 -2.18328
-23.2596 -25.1326 -2.76236
-24.1138 -25.7761 -2.45604
-25.0559 -27.0207 -1.70777
-25.4368 -27.4334 -1.97696
-23.7405 -25.4389 -2.64101
-23.5658 -25.2041 -3.09245
-23.1451 -25.0377 -2.90305
-23.0287 -24.993 -2.87383
-22.8499 -25.0367 -2.88674
-23.2877 -25.0644 -2.8867
-23.5091 -25.2066 -2.99404
-23.3977 -25.1445 -2.89689
-23.2902 -25.084 -2.86475
-23.0475 -25.0439 -2.79001
-23.4804 -25.2236 -2.97648
-23.1998 -25.0348 -2.78696
-23.4727 -25.2491 -2.97521
-23.6958 -25.3598 -3.04473
-23.4238 -25.346 -3.01914
-23.4032 -25.1632 -2.84832
-23.1485 -25.3575 -2.95691
-23.1067 -25.0022 -2.70377
-22.9957 -25.0016 -2.6393
-23.5709 -25.3626 -2.9997
-23.1864 -25.3175 -2.90512
-22.5533 -25.1842 -2.70672
-23.2375 -25.0558 -2.68901
-22.8483 -25.0298 -2.62606
-23.5155 -25.2184 -2.84047
-23.7218 -25.4028 -2.99921
-23.6029 -25.3719 -2.9407
-23.7408 -25.4098 -2.94897
-23.6463 -25.3174 -2.89603
-23.6409 -25.3181 -2.841
-23.2598 -25.0816 -2.62091
-23.158 -25.0359 -2.57079
-23.3275 -25.2069 -2.68328
-23.416 -25.285 -2.74542
-23.3364 -25.192 -2.67566
-23.6488 -25.354 -2.79647
-23.2868 -25.1133 -2.53915
-23.6321 -25.4153 -2.81124
-23.5625 -25.3022 -2.70583
-23.3269 -25.2639 -2.64029
-23.4866 -25.2201 -2.63171
-23.6664 -25.3574 -2.74703
-23.4993 -25.2547 -2.63999
-23.1966 -25.0872 -2.45133
-23.8571 -25.525 -2.87869
-23.6816 -25.3581 -2.73136
-23.8691 -25.5268 -2.84664
-22.7115 -25.1983 -2.39685
-23.406 -25.1912 -2.52665
-23.4928 -25.2868 -2.57322
-22.7135 -25.2339 -2.37338
-23.9336 -25.718 -2.93376
-23.7457 -25.555 -2.78661
-23.5993 -25.3423 -2.59061
-23.4414 -25.1695 -2.46815
-23.6994 -25.6644 -2.83122
-23.4395 -25.2026 -2.45251
-23.858 -25.5475 -2.7925
-23.7154 -25.6524 -2.79973
-23.1027 -25.1582 -2.34309
-22.3622 -25.54 -2.41919
-23.9008 -25.5981 -2.74505
-23.4623 -25.411 -2.55063
-23.3356 -25.1901 -2.37962
-23.7607 -25.5931 -2.72644
-23.7018 -25.4506 -2.60461
-23.4375 -25.2384 -2.42524
-24.0951 -25.7288 -2.87245
-23.8185 -25.5003 -2.6469
-23.598 -25.4023 -2.55441
-24.1 -25.7516 -2.84647
-23.5829 -25.7149 -2.72832
-24.1044 -25.7201 -2.8473
-22.8776 -25.3174 -2.29382
-23.9957 -25.673 -2.75455
-23.8139 -25.5564 -2.65752
-22.8597 -25.365 -2.28712
-24.1127 -25.7647 -2.7897
-23.9117 -25.6098 -2.64923
-23.8501 -25.5498 -2.59143
-23.6564 -25.3889 -2.45035
-23.2059 -25.285 -2.2763
-22.5693 -25.5945 -2.31506
-24.0135 -25.6938 -2.69987
-23.7544 -25.4506 -2.49801
-24.2118 -25.8464 -2.85457
-22.7936 -25.5102 -2.27431
-22.5 -25.7147 -2.33339
-24.1274 -25.7835 -2.76033
-24.0367 -25.7155 -2.68227
-23.6627 -25.4142 -2.39454
-22.4881 -25.7451 -2.32806
-24.1501 -25.8056 -2.74765
-23.9498 -25.635 -2.58672
-22.4317 -25.8494 -2.33751
-23.7666 -25.4868 -2.4323
-23.1761 -25.4157 -2.23318
-23.7696 -25.5083 -2.39979
-23.1653 -25.4528 -2.22547
-22.7193 -25.7031 -2.25982
-24.0646 -25.7094 -2.59109
-23.8652 -25.5747 -2.45178
-23.7977 -25.5186 -2.39562
-23.3303 -25.4113 -2.22549
-22.6907 -25.7657 -2.25974
-24.1539 -25.8158 -2.64133
-23.3189 -25.4638 -2.20987
-22.9267 -25.6507 -2.22556
-24.2558 -25.8953 -2.69395
-22.6235 -25.8998 -2.27014
-24.0871 -25.7521 -2.54045
-23.9889 -25.6733 -2.49013
-23.4535 -25.4534 -2.21466
-22.5965 -25.9421 -2.2752
-22.8878 -25.7528 -2.21698
-24.2822 -25.9155 -2.65112
-24.1974 -25.7965 -2.57596
-23.3111 -25.5552 -2.18314
-24.0986 -25.7646 -2.49805
-23.8063 -25.5608 -2.30166
-23.7053 -25.5146 -2.25656
-22.8509 -25.8401 -2.21628
-23.8982 -25.622 -2.35031
-23.4486 -25.5586 -2.17757
-23.2779 -25.6226 -2.17548
-23.0514 -25.7506 -2.18547
-24.0178 -25.7136 -2.39647
-23.9228 -25.6424 -2.34856
-23.4443 -25.5894 -2.16532
-23.9165 -25.6522 -2.29833
-23.8151 -25.6094 -2.24682
-22.7002 -26.1652 -2.23831
-24.121 -25.7944 -2.44308
-24.0275 -25.734 -2.35201
-23.3862 -25.7516 -2.17097
-23.1849 -25.8714 -2.17807
-22.9579 -26.0184 -2.1927
-23.8544 -25.6376 -2.23313
-23.1761 -25.9023 -2.17329
-24.3168 -25.9942 -2.54861
-23.9546 -25.7089 -2.24735
-23.8507 -25.6606 -2.2035
-23.1882 -25.8974 -2.15369
-22.9019 -26.1497 -2.19101
-24.2475 -25.8974 -2.43589
-23.1781 -25.9457 -2.13947
-22.8767 -26.2183 -2.19658
-23.8593 -25.689 -2.18188
-23.7161 -25.6817 -2.14332
-23.1883 -25.9637 -2.12769
-24.2511 -25.9108 -2.3952
-24.1583 -25.8437 -2.34341
-24.1706 -25.8593 -2.29929
-23.7503 -25.6943 -2.10149
-23.7456 -25.6606 -2.09318
-23.8617 -25.7145 -2.09809
-24.3603 -26.0017 -2.39018
-24.044 -25.8096 -2.19294
-24.2814 -25.9301 -2.32232
-24.0762 -25.8542 -2.18975
-24.2934 -25.9622 -2.29199
-24.1942 -25.9056 -2.2441
-23.8788 -25.7341 -2.07153
-24.3938 -26.0252 -2.39844
-23.8598 -25.7582 -2.04189
-24.3944 -26.0251 -2.35127
-24.0524 -25.708 -2.04791
-24.3008 -25.9651 -2.26535
-23.9056 -25.8051 -2.00146
-24.0283 -25.7628 -2.03689
-22.9438 -26.636 -2.10783
-24.1239 -25.8413 -2.09182
-23.8969 -25.8402 -1.9839
-24.2017 -25.9724 -2.15611
-24.4096 -26.0636 -2.25981
-24.4384 -26.0711 -2.23615
-24.447 -26.11 -2.20306
-24.3077 -26.0691 -2.15596
-24.4503 -26.1671 -2.15281
-24.21 -26.5782 -2.26148
-24.4581 -26.194 -2.14152
-23.1604 -26.825 -1.9221
-24.2447 -26.5707 -2.18946
-24.0691 -26.0396 -1.82761
-24.1005 -26.0591 -1.79206
-23.7351 -26.3038 -1.7711
-23.4743 -26.5967 -1.7982
-23.942 -26.1248 -1.75578
-23.4977 -26.5644 -1.77324
-23.4667 -26.6545 -1.78067
-24.2954 -26.6037 -2.07363
-23.7151 -26.4397 -1.73994
-23.439 -26.7562 -1.77585
-23.7048 -26.5041 -1.729
-23.699 -26.5589 -1.73329
-23.9058 -26.357 -1.71797
-23.8935 -26.4189 -1.71303
-23.6584 -26.6572 -1.7284
-24.233 -26.2213 -1.73973
-24.061 -26.3932 -1.70095
-23.8482 -26.6489 -1.70628
-24.0515 -26.4503 -1.69579
-23.8053 -26.739 -1.71589
-24.0444 -26.4949 -1.69145
-24.0478 -26.549 -1.68646
-24.4841 -26.4281 -1.75259
-24.1793 -26.6346 -1.68076
-24.4967 -26.4524 -1.74656
-24.1694 -26.7089 -1.68088
-23.8657 -27.2458 -1.733
-24.135 -26.8515 -1.68885
-24.1221 -26.9182 -1.69015
-24.6077 -26.5627 -1.74375
-24.2999 -26.8609 -1.67573
-24.0142 -27.3793 -1.73312
-24.2925 -26.9488 -1.67931
-24.2763 -27.0155 -1.68095
-24.2576 -27.1024 -1.68555
-24.2278 -27.2602 -1.70821
-24.1938 -27.3485 -1.71001
-24.403 -27.196 -1.69452
-24.3519 -27.4123 -1.71184
-24.348 -27.5483 -1.72914
-24.5262 -27.5265 -1.7336
-24.7457 -26.3371 -2.60587
-25.2775 -27.0976 -1.93399
-23.7895 -25.4802 -2.9152
-23.6673 -25.7042 -2.86051
-23.4925 -25.6529 -2.15292
-25.4742 -27.0046 -2.84463
-24.9538 -26.5022 -2.79776
-24.4464 -26.0856 -2.8754
-25.0722 -28.2058 -2.29409
-25.0071 -28.2558 -2.30072
-23.4438 -25.1546 -2.95292
-23.2234 -25.0291 -2.85876
-22.891 -25.0407 -2.83855
-23.2569 -25.0553 -2.79479
-23.5202 -25.2527 -2.95371
-23.0169 -25.001 -2.70214
-23.7052 -25.3949 -3.0511
-23.6014 -25.3573 -2.99646
-23.555 -25.2445 -2.89267
-23.056 -24.9971 -2.64552
-23.3921 -25.1177 -2.74746
-23.7337 -25.3986 -2.99358
-23.3129 -25.0722 -2.69692
-23.4071 -25.1392 -2.69963
-23.2116 -25.0574 -2.5978
-22.8952 -25.0323 -2.57697
-22.9066 -25.0407 -2.55575
-23.4652 -25.2478 -2.77053
-23.7631 -25.4494 -2.89972
-23.4534 -25.3004 -2.74308
-23.2963 -25.1346 -2.62551
-23.5046 -25.2412 -2.70291
-23.3909 -25.0461 -2.54818
-23.5719 -25.3352 -2.77433
-23.3256 -25.1254 -2.58397
-23.1429 -25.0121 -2.47146
-23.4493 -25.1695 -2.59499
-23.4251 -25.3623 -2.7374
-22.8806 -25.1371 -2.49352
-22.7289 -25.1266 -2.46613
-23.611 -25.3325 -2.70116
-23.4431 -25.3522 -2.71342
-23.7832 -25.4675 -2.82652
-23.4137 -25.7662 -3.00244
-23.6016 -25.3068 -2.68584
-23.4544 -25.1854 -2.57088
-23.3605 -25.1568 -2.49394
-23.2612 -25.1031 -2.44973
-23.5552 -25.2942 -2.6014
-23.4234 -25.2436 -2.57082
-23.8876 -25.5472 -2.84429
-23.5589 -25.2731 -2.59903
-23.2753 -25.1219 -2.40846
-23.361 -25.3487 -2.58267
-23.3705 -25.177 -2.4575
-23.8734 -25.6035 -2.82692
-23.3765 -25.1922 -2.4329
-23.8938 -25.5971 -2.78851
-23.7444 -25.6147 -2.77854
-23.8505 -25.4779 -2.67755
-22.9634 -25.1906 -2.32712
-23.6434 -25.4111 -2.56808
-23.5088 -25.4057 -2.54278
-22.9535 -25.2156 -2.31425
-24.0777 -25.7657 -2.88277
-24.0015 -25.6852 -2.7951
-23.6163 -25.6346 -2.7146
-23.1546 -25.2023 -2.3119
-23.5873 -25.3366 -2.49237
-23.3924 -25.2303 -2.37
-23.1193 -25.2173 -2.30146
-22.6076 -25.4014 -2.34279
-23.5015 -25.2925 -2.38762
-23.105 -25.2466 -2.28712
-23.7643 -25.4708 -2.53474
-23.5097 -25.3172 -2.35069
-23.1111 -25.2683 -2.27024
-23.6878 -25.409 -2.45752
-23.1079 -25.3047 -2.26186
-22.5268 -25.5545 -2.32793
-23.09 -25.3451 -2.25105
-24.3161 -25.9495 -2.88233
-23.7093 -25.4346 -2.42299
-23.6123 -25.3868 -2.3721
-23.5175 -25.3529 -2.30465
-23.2551 -25.3558 -2.24245
-24.0529 -25.7365 -2.64182
-23.3882 -25.3591 -2.2569
-22.7731 -25.5254 -2.26997
-22.7607 -25.5553 -2.26725
-24.2576 -25.9017 -2.75353
-23.5172 -25.3818 -2.27882
-24.4267 -26.0275 -2.87592
-23.8116 -25.5334 -2.42073
-23.5172 -25.4105 -2.25294
-23.3833 -25.3938 -2.2328
-23.2226 -25.4109 -2.2178
-22.7197 -25.6048 -2.2659
-24.075 -25.7437 -2.58867
-23.6189 -25.438 -2.28735
-24.4498 -26.0434 -2.85448
-23.73 -25.4874 -2.3391
-24.1625 -25.8324 -2.63971
-24.0016 -25.6854 -2.49018
-23.737 -25.4898 -2.32393
-23.6312 -25.4542 -2.27862
-23.5115 -25.4464 -2.23051
-24.4813 -26.2596 -2.95228
-24.4581 -26.0615 -2.79388
-24.5507 -26.1483 -2.85664
-24.2588 -25.905 -2.64554
-24.1987 -25.8495 -2.58785
-24.3503 -25.9715 -2.69579
-23.9256 -25.635 -2.38393
-24.452 -26.0613 -2.7456
-23.7536 -25.5557 -2.23772
-23.634 -25.5203 -2.21612
-24.5657 -26.1551 -2.79217
-23.0604 -25.6971 -2.1935
-24.671 -26.2252 -2.84812
-22.696 -25.9706 -2.23761
-24.0587 -25.7495 -2.3955
-23.0068 -25.8127 -2.18619
-22.6547 -26.0291 -2.24532
-24.3963 -26.0134 -2.59922
-24.6575 -26.2484 -2.79331
-24.6861 -26.266 -2.79058
-24.4975 -26.1139 -2.64206
-23.4111 -25.7155 -2.16241
-24.6021 -26.2101 -2.69834
-23.1064 -25.9175 -2.18063
-24.7931 -26.3271 -2.82529
-24.6993 -26.2744 -2.74905
-23.7564 -25.6657 -2.14096
-23.3791 -25.7939 -2.14748
-22.8299 -26.098 -2.2017
-24.3331 -25.9749 -2.4737
-23.969 -25.735 -2.2266
-23.4436 -25.7354 -2.10603
-24.4287 -26.0469 -2.52529
-24.3382 -25.9654 -2.44698
-24.061 -25.7888 -2.2836
-24.7013 -26.2971 -2.74208
-24.8164 -26.3792 -2.75632
-23.9783 -25.7819 -2.1791
-23.8944 -25.7169 -2.10294
-24.9131 -26.4664 -2.7985
-24.5559 -26.1507 -2.54137
-23.9756 -25.7932 -2.16108
-24.6409 -26.2174 -2.57948
-24.5522 -26.1588 -2.49746
-24.1798 -25.899 -2.25252
-24.2732 -25.9613 -2.29473
-24.737 -26.3193 -2.63214
-24.3675 -26.0157 -2.3476
-24.0657 -25.6997 -2.07597
-22.7934 -26.4799 -2.21553
-24.8378 -26.4174 -2.6843
-24.5563 -26.1617 -2.44982
-24.8463 -26.4232 -2.6551
-24.0919 -25.8984 -2.13979
-24.7628 -26.3186 -2.55075
-24.6596 -26.2601 -2.50053
-24.496 -26.1099 -2.39323
-24.9494 -26.5131 -2.69792
-24.5779 -26.1865 -2.4308
-24.8631 -26.4396 -2.60369
-24.765 -26.3445 -2.54697
-24.9661 -26.5501 -2.64992
-24.4131 -26.0927 -2.24009
-24.7872 -26.366 -2.48352
-23.9223 -25.8574 -1.95646
-24.5034 -26.1653 -2.25399
-23.9146 -25.8959 -1.94101
-24.7974 -26.3738 -2.45469
-24.6188 -26.2427 -2.34128
-24.8972 -26.4638 -2.49824
-24.6199 -26.2499 -2.30014
-24.519 -26.1856 -2.24117
-24.8026 -26.3924 -2.43786
-24.7211 -26.3374 -2.34671
-24.6105 -26.2525 -2.25293
-24.5467 -26.2207 -2.19958
-24.9138 -26.4924 -2.44005
-24.7286 -26.3412 -2.31502
-24.6368 -26.2738 -2.25603
-24.6547 -26.3162 -2.20428
-24.1004 -26.6894 -2.1982
-24.8531 -26.4569 -2.29367
-24.6657 -26.3394 -2.1878
-25.0539 -26.6118 -2.44046
-24.5528 -26.2946 -2.10923
-24.3703 -26.4282 -2.11966
-25.0462 -26.6387 -2.43447
-24.9539 -26.5414 -2.33341
-24.3884 -26.4218 -2.0871
-24.1188 -26.7026 -2.15417
-25.0679 -26.637 -2.3979
-24.8641 -26.4708 -2.25755
-24.1484 -26.6761 -2.11245
-24.3959 -26.4628 -2.04955
-23.9035 -26.2046 -1.749
-24.8687 -26.494 -2.23969
-24.1422 -26.7128 -2.10283
-24.0689 -26.1157 -1.77081
-23.6311 -26.4075 -1.77333
-25.0635 -26.6451 -2.34413
-24.7715 -26.4667 -2.15089
-24.063 -26.0991 -1.7423
-25.0916 -26.6566 -2.33881
-24.8897 -26.5135 -2.19357
-24.9974 -26.606 -2.2433
-24.5915 -26.3557 -2.00146
-24.3931 -26.5097 -2.02879
-24.5658 -26.3971 -1.99891
-24.4 -26.5109 -2.0148
-23.8894 -26.2641 -1.71364
-24.0592 -26.2208 -1.71572
-23.8595 -26.3444 -1.70733
-24.4742 -26.396 -1.9322
-23.4689 -26.7772 -1.76677
-25.1188 -26.6748 -2.25519
-24.1984 -26.2671 -1.73431
-24.026 -26.3275 -1.70135
-25.0149 -26.6507 -2.19267
-24.0246 -26.3476 -1.70152
-23.7432 -26.6047 -1.72011
-25.1084 -26.7013 -2.24389
-24.9034 -26.6121 -2.10438
-24.2972 -26.3054 -1.74167
-24.0005 -26.3959 -1.69926
-25.0076 -26.6599 -2.15874
-23.6894 -26.7298 -1.72288
-24.5152 -26.4583 -1.83498
-23.9473 -26.499 -1.69735
-23.9354 -26.5688 -1.69642
-24.2992 -26.3566 -1.70584
-23.9184 -26.6166 -1.6938
-24.4124 -26.4217 -1.7589
-23.8984 -26.6692 -1.69316
-25.1521 -26.7655 -2.15605
-24.0806 -26.6259 -1.68517
-23.8007 -26.907 -1.70808
-24.539 -26.4713 -1.76876
-25.1446 -26.8025 -2.14238
-24.5075 -26.5035 -1.74188
-24.5477 -26.5063 -1.74348
-24.1974 -26.6895 -1.68107
-23.9481 -26.9747 -1.69947
-24.1902 -26.7589 -1.67805
-23.8553 -27.1978 -1.72266
-24.1564 -26.9022 -1.68067
-25.0636 -26.8235 -2.00761
-24.1061 -27.0256 -1.68664
-24.3128 -26.8824 -1.68889
-24.0482 -27.1679 -1.7069
-24.0084 -27.3048 -1.72844
-24.7981 -26.7113 -1.7484
-24.7902 -26.7553 -1.73113
-24.2075 -27.202 -1.69572
-24.7972 -26.7285 -1.71502
-24.1638 -27.3433 -1.71021
-24.9166 -26.8542 -1.79342
-24.7822 -26.7903 -1.71832
-24.4257 -27.062 -1.68284
-25.202 -26.9765 -1.94411
-25.0192 -26.8623 -1.80503
-24.9046 -26.8099 -1.75093
-25.2181 -27.0042 -1.95019
-24.3415 -27.3355 -1.70235
-24.9026 -26.9137 -1.73376
-24.9197 -26.8697 -1.74277
-24.5635 -27.1514 -1.68431
-25.2462 -27.0581 -1.90073
-25.0112 -26.9125 -1.75555
-24.7455 -27.0251 -1.69308
-24.5275 -27.2705 -1.69788
-25.0389 -26.9031 -1.75436
-24.7397 -27.0635 -1.68879
-25.0556 -26.9565 -1.75602
-25.1364 -27.0238 -1.80124
-24.7239 -27.1563 -1.6872
-24.4267 -27.6123 -1.73211
-25.2506 -27.0878 -1.87655
-25.2576 -27.1145 -1.8465
-25.1488 -27.0593 -1.79003
-24.6681 -27.3638 -1.70335
-24.8687 -27.1738 -1.6996
-24.5989 -27.6175 -1.73175
-25.2595 -27.1379 -1.82732
-24.8572 -27.3141 -1.70836
-24.562 -27.7529 -1.74697
-24.8085 -27.4906 -1.71891
-25.2775 -27.186 -1.80117
-25.2881 -27.2085 -1.8015
-24.9644 -27.4001 -1.71036
-24.6988 -27.9033 -1.76558
-24.8904 -27.8432 -1.755
-25.2938 -27.3607 -2.91323
-24.7298 -26.3853 -2.17439
-24.9462 -26.9135 -1.71188
-25.4638 -27.8461 -2.59941
-24.4387 -27.2078 -1.69493
-25.5018 -27.8607 -2.7194
-24.8472 -26.7716 -1.96885
-25.4531 -27.7614 -2.42066
-23.4597 -25.3051 -2.55581
-25.4002 -27.2075 -1.95307
-23.2146 -25.0543 -2.90646
-23.4902 -25.1679 -2.90855
-23.3748 -25.115 -2.87473
-23.4978 -25.3095 -3.00868
-23.4521 -25.2124 -2.90973
-23.4535 -25.3625 -3.03104
-23.394 -25.2636 -2.93465
-23.2856 -25.0819 -2.77996
-23.3836 -25.43 -3.07037
-23.2034 -25.0201 -2.70579
-23.7111 -25.4755 -3.0535
-23.4233 -25.1622 -2.75451
-23.197 -25.2017 -2.77529
-24.4674 -27.153 -1.69221
-23.792 -25.4503 -2.94152
-23.1728 -25.2583 -2.74905
-23.5805 -25.3445 -2.85142
-23.5441 -25.5325 -2.98992
-23.1271 -25.0336 -2.54504
-23.6129 -25.357 -2.78816
-23.7197 -25.4259 -2.83365
-23.5082 -25.3302 -2.71395
-23.6064 -25.4181 -2.74754
-23.5729 -25.3048 -2.64421
-23.4742 -25.2484 -2.59393
-23.7385 -25.7499 -3.01686
-23.5469 -25.4727 -2.77176
-23.8927 -25.6055 -2.89
-23.4359 -25.5815 -2.83214
-22.6348 -25.2004 -2.46047
-23.9165 -25.6125 -2.85614
-23.76 -25.4607 -2.70658
-23.6721 -25.4095 -2.64289
-24.0248 -25.6702 -2.87277
-23.7517 -25.4962 -2.69387
-23.4269 -25.3491 -2.55667
-23.1483 -25.1625 -2.38224
-23.9369 -25.6237 -2.80274
-23.3103 -25.4506 -2.59188
-23.3179 -25.1838 -2.37826
-23.9566 -25.6449 -2.78707
-23.5827 -25.6797 -2.77734
-23.66 -25.4543 -2.58729
-22.6002 -25.3052 -2.38752
-24.0517 -25.7058 -2.84068
-23.875 -25.5675 -2.68824
-22.5647 -25.3462 -2.38401
-24.0482 -25.7187 -2.79927
-23.6501 -25.5023 -2.59546
-23.9701 -25.6642 -2.697
-23.8058 -25.5059 -2.5973
-24.1509 -25.8036 -2.79633
-23.9201 -25.601 -2.59596
-23.3095 -25.2623 -2.30239
-23.8345 -25.5188 -2.536
-23.1324 -25.2829 -2.27487
-23.981 -25.68 -2.66277
-23.8414 -25.5238 -2.51992
-24.2657 -25.9012 -2.84043
-23.9255 -25.5987 -2.56905
-24.3414 -25.9521 -2.8753
-23.2951 -25.3261 -2.26516
-22.7735 -25.4427 -2.29332
-23.2873 -25.3484 -2.25195
-22.734 -25.4884 -2.29163
-24.1726 -25.8348 -2.72612
-23.5713 -25.4073 -2.29309
-24.2033 -25.8535 -2.69633
-24.4093 -26.0934 -2.91577
-22.6859 -25.5528 -2.28008
-24.2016 -25.8553 -2.64563
-24.145 -25.7482 -2.58081
-24.0328 -25.7198 -2.53537
-23.9723 -25.6435 -2.44807
-23.873 -25.5905 -2.40411
-23.4353 -25.4243 -2.22001
-24.3039 -25.9423 -2.691
-23.4191 -25.4599 -2.20508
-22.9122 -25.5743 -2.24059
-24.1372 -25.8007 -2.54538
-24.2524 -25.8576 -2.58536
-23.989 -25.6704 -2.39477
-23.3966 -25.4999 -2.1888
-24.1557 -25.8186 -2.49584
-23.3842 -25.5337 -2.1757
-24.6587 -26.2498 -2.87777
-23.0801 -25.6556 -2.1987
-24.5757 -26.1823 -2.79807
-24.4214 -26.0419 -2.63491
-24.3546 -25.9621 -2.59098
-24.1717 -25.839 -2.44869
-24.0872 -25.7758 -2.38957
-24.2673 -25.9116 -2.49217
-24.0186 -25.7205 -2.29857
-24.3551 -25.9784 -2.53408
-24.1024 -25.7972 -2.34389
-23.8176 -25.6544 -2.19161
-23.2155 -25.752 -2.17704
-22.9206 -25.8457 -2.20591
-24.19 -25.862 -2.39558
-24.714 -26.2999 -2.79117
-24.3703 -25.9936 -2.49206
-25.0095 -26.5665 -2.85303
-24.2806 -25.9296 -2.44064
-24.0287 -25.7424 -2.26138
-23.7262 -25.6071 -2.11332
-24.4634 -26.06 -2.53697
-24.1164 -25.8206 -2.29856
-23.8147 -25.6775 -2.15819
-23.153 -25.8484 -2.16134
-23.8128 -25.701 -2.13803
-24.5608 -26.1272 -2.57428
-24.2101 -25.8888 -2.33601
-23.0768 -25.9387 -2.1705
-24.0357 -25.7794 -2.21486
-23.0112 -26.0092 -2.18578
-24.6518 -26.2613 -2.64803
-23.8197 -25.7278 -2.10131
-24.9653 -26.5873 -2.91275
-24.6498 -26.2384 -2.5956
-24.3 -25.958 -2.34248
-24.4086 -26.0361 -2.38364
-24.3174 -25.9867 -2.32362
-24.1342 -25.9017 -2.19392
-25.4032 -26.8609 -3.09111
-24.921 -26.4964 -2.74339
-24.5821 -26.179 -2.48888
-25.0907 -26.6681 -2.90178
-24.1513 -25.7293 -2.07671
-25.0085 -26.5587 -2.78982
-24.1463 -25.7454 -2.06961
-25.2028 -26.7489 -2.934
-25.222 -26.7229 -2.89353
-24.6815 -26.2753 -2.50088
-25.409 -26.9019 -3.04418
-25.3194 -26.8028 -2.96015
-24.7043 -26.3017 -2.49608
-24.5173 -26.1472 -2.33765
-24.4335 -26.0792 -2.30069
-24.2432 -25.9919 -2.18618
-23.8598 -25.8015 -1.9893
-24.129 -25.9644 -2.14522
-25.5386 -26.9439 -3.09427
-24.1047 -25.837 -2.05044
-25.4357 -26.8696 -2.9921
-25.2923 -26.9115 -2.98771
-25.5431 -26.9673 -3.04903
-23.1662 -26.1896 -2.06244
-24.3442 -26.0688 -2.20435
-24.2524 -26.0193 -2.1462
-24.1311 -25.9854 -2.12243
-24.0702 -25.9052 -2.04186
-25.4415 -26.9058 -2.99605
-25.2486 -26.7479 -2.8446
-24.8625 -26.4517 -2.55412
-23.8944 -25.7968 -1.92322
-25.1574 -26.6542 -2.74593
-24.5436 -26.1696 -2.28368
-24.2466 -26.0349 -2.14212
-24.1495 -25.9934 -2.08491
-25.1526 -26.7116 -2.74386
-25.5523 -26.9763 -3.00852
-25.4002 -27.0193 -3.00935
-25.0551 -26.6065 -2.64253
-24.5538 -26.1713 -2.26166
-24.2643 -26.0534 -2.09588
-24.17 -26.0014 -2.04419
-24.6355 -26.2574 -2.32114
-25.3625 -26.828 -2.83389
-25.1664 -26.6971 -2.68118
-24.6391 -26.2686 -2.29414
-24.1494 -26.0463 -2.0374
-25.5594 -27.0103 -2.94223
-25.0828 -26.6273 -2.60788
-24.7457 -26.3565 -2.34111
-24.2565 -26.0927 -2.0747
-25.2669 -26.8068 -2.74513
-24.6497 -26.2855 -2.2718
-24.2878 -26.07 -2.04166
-24.0043 -25.9586 -1.89201
-25.3851 -26.8309 -2.77458
-25.1899 -26.7105 -2.63428
-23.9782 -25.961 -1.885
-25.1064 -26.6364 -2.54655
-24.9965 -26.5627 -2.49023
-25.3593 -26.8645 -2.75442
-25.3906 -26.8691 -2.741
-25.2005 -26.7067 -2.59271
-25.0119 -26.5851 -2.47882
-24.371 -26.1755 -2.06651
-25.6072 -27.0553 -2.89552
-24.7542 -26.3844 -2.27207
-24.3825 -26.3567 -2.16184
-24.3667 -26.1945 -2.05796
-25.3805 -26.919 -2.74099
-25.2073 -26.7561 -2.60177
-24.573 -26.2944 -2.13715
-25.3659 -26.9684 -2.74069
-25.207 -26.7448 -2.54596
-25.4605 -27.0611 -2.79343
-25.3603 -27.0033 -2.74371
-25.3187 -26.852 -2.5915
-25.1382 -26.6802 -2.45095
-24.5654 -26.3495 -2.1078
-24.365 -26.4449 -2.12119
-25.2411 -26.7664 -2.49888
-25.0412 -26.6101 -2.34898
-25.6159 -27.0987 -2.74686
-25.4092 -26.9509 -2.64467
-25.2558 -26.7997 -2.44574
-25.5507 -27.0094 -2.6413
-24.9117 -26.5546 -2.19556
-23.514 -26.516 -1.79208
-24.7066 -26.4636 -2.08738
-24.5035 -26.3634 -1.9428
-24.1144 -26.2028 -1.7403
-23.4745 -26.5737 -1.79488
-25.5524 -27.0493 -2.60612
-23.4209 -26.6475 -1.80262
-24.1845 -26.267 -1.78564
-25.5052 -27.1517 -2.65096
-25.4528 -27.0211 -2.55857
-25.3517 -26.8589 -2.45148
-24.6002 -26.399 -1.95142
-25.4861 -27.2582 -2.68197
-24.609 -26.4511 -1.95087
-25.3713 -27.2213 -2.61967
-24.0524 -26.3161 -1.7085
-25.5018 -27.2416 -2.6503
-23.7629 -26.4827 -1.72467
-25.5016 -27.2098 -2.63182
-25.648 -27.2144 -2.64714
-25.1937 -26.7655 -2.2447
-25.386 -26.928 -2.38866
-25.418 -26.9624 -2.39885
-24.3617 -26.3657 -1.7373
-23.539 -26.8217 -1.74717
-25.3938 -26.9509 -2.34591
-25.0022 -26.7101 -2.10344
-24.437 -26.4156 -1.75695
-25.2008 -26.8129 -2.19143
-25.3126 -26.8975 -2.24855
-23.7663 -26.7865 -1.7159
-25.6093 -27.1497 -2.44931
-24.0582 -26.604 -1.69382
-25.417 -26.9911 -2.29025
-25.2057 -26.8503 -2.14676
-23.9726 -26.7471 -1.70557
-25.3128 -26.9138 -2.2017
-23.9506 -26.7905 -1.7029
-25.6092 -27.1561 -2.39791
-24.559 -26.5448 -1.74902
-23.9 -26.8732 -1.71151
-25.4126 -27.0017 -2.24819
-25.3244 -26.9391 -2.1841
-25.7119 -27.3352 -2.48322
-25.5207 -27.0996 -2.29887
-23.7906 -27.0528 -1.72918
-25.4366 -27.0263 -2.23169
-25.3443 -26.9672 -2.16077
-25.703 -27.3081 -2.44893
-25.6265 -27.1888 -2.3896
-25.5431 -27.1109 -2.29021
-24.0973 -26.8563 -1.68963
-25.64 -27.2111 -2.34909
-25.4479 -27.0496 -2.1971
-25.2465 -26.9557 -2.05355
-24.7547 -26.7006 -1.77536
-25.7054 -27.4025 -2.43543
-24.2234 -26.9333 -1.68868
-25.3522 -27.0507 -2.09825
-25.4591 -27.111 -2.14291
-25.2584 -26.9995 -2.03455
-24.162 -27.0607 -1.69915
-25.6279 -27.326 -2.32442
-24.7632 -26.7435 -1.73085
-24.7698 -26.7467 -1.71698
-25.3563 -27.0846 -2.07409
-24.8547 -26.7903 -1.74429
-25.648 -27.3592 -2.28979
-25.4643 -27.1403 -2.12358
-24.314 -27.1042 -1.69689
-25.6471 -27.3529 -2.24599
-24.2814 -27.1754 -1.6981
-25.549 -27.2059 -2.15393
-25.1754 -27.0069 -1.89732
-24.521 -27.0036 -1.68443
-25.3752 -27.1451 -2.00821
-25.6486 -27.4491 -2.23792
-25.3117 -27.1115 -1.94864
-25.5613 -27.3164 -2.11179
-24.966 -27.0126 -1.73268
-24.8577 -27.0072 -1.69332
-24.6031 -27.1504 -1.68565
-24.5957 -27.2539 -1.69595
-25.3161 -27.1507 -1.89779
-25.0998 -27.022 -1.76496
-24.7762 -27.1491 -1.69598
-25.5415 -27.4967 -2.13175
-25.4913 -27.6541 -2.16278
-25.2972 -27.1719 -1.85502
-24.741 -27.2652 -1.70185
-24.4433 -27.5513 -1.7235
-25.3117 -27.2077 -1.84029
-24.8818 -27.3156 -1.70567
-24.5286 -27.7773 -1.75446
-25.5218 -27.0999 -2.63345
-24.5084 -26.4278 -1.80149
-23.6514 -25.3376 -3.03041
-23.6937 -25.351 -2.96334
-23.6296 -25.2719 -2.87958
-23.2509 -25.1403 -2.71965
-23.1959 -25.2138 -2.69884
-23.6578 -25.3285 -2.7862
-23.694 -25.4359 -2.87326
-23.2004 -25.2347 -2.67202
-23.2315 -25.2304 -2.64437
-23.2611 -25.2255 -2.61912
-23.5807 -25.3028 -2.66434
-22.8031 -25.0988 -2.4804
-23.5148 -25.3516 -2.68773
-23.8674 -25.6569 -2.92018
-23.5421 -25.3586 -2.64913
-23.4256 -25.1957 -2.48059
-23.935 -25.6162 -2.84745
-23.9456 -25.6345 -2.83682
-22.8564 -25.1447 -2.38385
-23.9263 -25.7945 -2.95548
-23.7359 -25.5377 -2.71348
-23.7312 -25.4111 -2.61138
-22.8571 -25.1626 -2.36391
-24.0292 -25.7282 -2.87782
-23.8861 -25.5802 -2.72334
-22.8374 -25.1887 -2.35346
-24.1172 -25.8291 -2.90586
-24.1662 -25.8132 -2.84811
-24.0748 -25.7486 -2.79155
-23.6583 -25.3879 -2.486
-23.7 -25.3743 -2.45295
-24.0903 -25.7634 -2.74938
-23.0561 -25.2959 -2.27382
-24.208 -25.8565 -2.7481
-24.1147 -25.7917 -2.69033
-24.3149 -25.9342 -2.77603
-22.9129 -25.4284 -2.26532
-24.3167 -25.9462 -2.74513
-24.5014 -26.0981 -2.85161
-24.0738 -25.754 -2.5372
-24.1719 -25.8183 -2.58691
-24.4173 -26.0335 -2.74642
-24.5122 -26.1115 -2.78787
-24.5943 -26.1808 -2.86245
-22.5451 -25.7076 -2.30904
-23.0567 -25.5711 -2.21431
-22.9561 -25.6578 -2.21992
-24.5512 -26.157 -2.69685
-24.777 -26.3971 -2.89278
-24.6285 -26.235 -2.7495
-23.5337 -25.6173 -2.14595
-22.7088 -25.855 -2.25051
-24.8109 -26.3987 -2.86625
-24.6519 -26.2502 -2.7427
-23.5768 -25.601 -2.11652
-24.7353 -26.323 -2.75359
-24.5174 -26.0799 -2.55472
-24.8261 -26.4016 -2.79639
-24.3384 -25.9717 -2.41138
-24.9317 -26.464 -2.82738
-24.8562 -26.4212 -2.78304
-24.7592 -26.356 -2.70075
-24.681 -26.2787 -2.61659
-23.3194 -25.857 -2.12077
-25.3805 -26.8702 -3.09798
-24.6358 -26.2194 -2.48502
-23.9116 -25.7254 -2.05228
-24.9926 -26.8263 -2.99471
-24.4712 -26.1055 -2.35207
-24.379 -26.0392 -2.3048
-23.1463 -26.0203 -2.13277
-24.5582 -26.1709 -2.40045
-23.8727 -25.8016 -2.029
-24.9626 -26.5391 -2.69567
-22.8812 -26.235 -2.1893
-24.8349 -26.3563 -2.54438
-22.7374 -26.3448 -2.22719
-24.8186 -26.3976 -2.53472
-24.731 -26.3244 -2.48755
-24.0871 -25.7999 -2.00085
-23.8475 -25.85 -1.97985
-24.6843 -26.2734 -2.35373
-25.4263 -26.9363 -2.93703
-25.0784 -26.6416 -2.69328
-25.0018 -26.573 -2.6046
-24.7616 -26.3636 -2.39874
-25.2648 -26.8035 -2.7997
-25.3604 -26.8495 -2.82775
-25.1612 -26.7607 -2.70283
-25.0369 -26.5547 -2.54385
-23.4467 -26.1211 -1.94101
-25.0279 -26.5828 -2.53624
-24.777 -26.3849 -2.35284
-24.9518 -26.5243 -2.4524
-24.7973 -26.4058 -2.33787
-24.5172 -26.2197 -2.16613
-25.553 -27.0549 -2.90391
-23.3555 -26.2068 -1.95256
-25.1697 -26.7853 -2.66502
-25.1404 -26.6551 -2.54099
-24.797 -26.4137 -2.29259
-24.0447 -25.9728 -1.87123
-25.1951 -26.7727 -2.62415
-24.3442 -26.1323 -2.019
-25.587 -27.0206 -2.83335
-25.3127 -26.8494 -2.64432
-24.6205 -26.3226 -2.15608
-24.5001 -26.2916 -2.12141
-24.8112 -26.4424 -2.24233
-24.5199 -26.2942 -2.08936
-24.4314 -26.2248 -2.04334
-25.3059 -27.0674 -2.7747
-25.3956 -26.9477 -2.67383
-25.0112 -26.5902 -2.34603
-24.8233 -26.4685 -2.19851
-25.6014 -27.0786 -2.7583
-25.3444 -27.2863 -2.85563
-25.337 -26.8563 -2.56439
-24.729 -26.4202 -2.14306
-25.6692 -27.205 -2.84777
-25.2591 -26.7876 -2.48407
-24.9175 -26.5362 -2.23625
-24.6261 -26.39 -2.08305
-24.742 -26.4287 -2.11427
-24.7369 -26.4568 -2.09632
-25.5171 -27.0541 -2.64378
-25.2097 -26.7649 -2.39978
-24.642 -26.4062 -2.0432
-25.194 -26.7515 -2.34644
-25.7142 -27.2062 -2.75727
-24.8262 -26.5392 -2.12915
-24.76 -26.4884 -2.10015
-24.663 -26.4057 -2.01131
-24.1572 -26.1881 -1.74966
-24.9286 -26.5857 -2.17331
-24.7446 -26.4993 -2.04482
-24.6493 -26.4436 -1.99657
-24.5597 -26.4157 -1.93718
-25.7143 -27.2491 -2.73446
-25.6229 -27.1515 -2.65885
-25.4438 -27.2359 -2.67361
-25.365 -27.1401 -2.59386
-24.9316 -26.6172 -2.14041
-24.8226 -26.5956 -2.08424
-25.4435 -27.2634 -2.65462
-24.863 -26.5981 -2.09644
-24.2822 -26.2686 -1.74586
-25.1279 -26.7323 -2.22383
-25.0297 -26.6867 -2.17196
-24.7529 -26.5416 -1.99258
-23.7761 -26.4348 -1.71566
-24.8358 -26.6096 -2.04999
-25.5566 -27.1198 -2.55238
-24.5933 -26.4507 -1.84969
-24.2714 -26.3153 -1.70911
-25.6484 -27.1674 -2.54548
-23.5768 -26.6446 -1.7401
-24.9466 -26.6695 -2.06935
-23.9833 -26.4468 -1.69227
-25.0395 -26.7461 -2.10445
-24.9463 -26.682 -2.05884
-25.2401 -26.8503 -2.19189
-25.739 -27.323 -2.60902
-24.3611 -26.4177 -1.70938
-25.6601 -27.2122 -2.49636
-25.7417 -27.3522 -2.59588
-25.0035 -26.8323 -2.09387
-24.595 -26.5033 -1.80163
-25.6773 -27.2387 -2.48114
-24.591 -26.5257 -1.76128
-25.741 -27.4073 -2.59694
-24.0338 -26.6349 -1.68416
-25.6629 -27.5165 -2.48772
-24.2652 -26.5847 -1.67429
-25.7214 -27.4683 -2.58368
-25.1529 -26.8702 -2.06625
-25.6145 -27.1939 -2.34038
-24.3678 -26.6692 -1.69749
-25.5192 -27.1106 -2.24266
-24.714 -26.6531 -1.74865
-24.1111 -26.7993 -1.68053
-25.6084 -27.2029 -2.29121
-24.3199 -26.7489 -1.67989
-25.627 -27.2414 -2.2837
-25.6013 -27.3172 -2.29885
-24.1482 -26.9903 -1.68787
-25.6632 -27.4235 -2.3644
-25.6048 -27.3591 -2.29405
-24.3984 -26.903 -1.66859
-25.6532 -27.4983 -2.3657
-25.6058 -27.3571 -2.25258
-24.3645 -26.9645 -1.67463
-23.9203 -27.2865 -1.72797
-25.6066 -27.4059 -2.24766
-24.1272 -27.2914 -1.70974
-24.032 -27.4175 -1.72844
-25.6174 -27.4558 -2.18438
-24.3358 -27.2708 -1.70028
-25.5222 -27.4108 -2.09869
-25.4593 -27.5526 -2.10431
-25.4293 -27.6313 -2.12773
-24.6037 -27.4506 -1.71313
-24.817 -27.3522 -1.70518
-25.2195 -27.8482 -2.07766
-24.8876 -27.5129 -1.73606
-24.6237 -27.9297 -1.84085
-25.0728 -26.881 -2.81466
-23.4463 -25.1244 -2.85603
-23.4592 -25.2565 -2.94296
-23.5285 -25.255 -2.88363
-23.755 -25.4523 -2.94049
-23.6169 -25.407 -2.88179
-23.5544 -25.2283 -2.65936
-23.7911 -25.4953 -2.86032
-23.6309 -25.4485 -2.82554
-23.3838 -25.3155 -2.71144
-23.7703 -25.5229 -2.85179
-23.6168 -25.4673 -2.81899
-23.6532 -25.3434 -2.68236
-23.5508 -25.2655 -2.62379
-23.8038 -25.5367 -2.80456
-23.5839 -25.2873 -2.57356
-23.7143 -25.5181 -2.67515
-23.876 -25.5834 -2.68483
-23.6488 -25.4654 -2.55875
-23.6661 -25.4256 -2.3593
-24.5443 -26.0999 -2.81855
-24.5856 -26.2034 -2.87797
-24.6167 -26.2343 -2.83206
-24.131 -25.7957 -2.43373
-24.4466 -26.0074 -2.55416
-24.7501 -26.3127 -2.83512
-24.8493 -26.4041 -2.83799
-24.7582 -26.3399 -2.77938
-24.9516 -26.5089 -2.84626
-24.883 -26.4534 -2.73744
-24.4782 -26.0907 -2.42844
-25.2555 -26.856 -3.10752
-25.0355 -26.6064 -2.87502
-24.9708 -26.5352 -2.78178
-24.8074 -26.4016 -2.64614
-25.3409 -26.8122 -3
-24.8981 -26.4733 -2.6947
-25.1461 -26.7003 -2.8451
-24.0653 -25.8092 -2.0348
-25.0102 -26.5672 -2.70193
-24.8365 -26.4199 -2.59174
-25.0364 -26.8356 -2.92089
-24.0788 -25.8174 -2.01315
-25.261 -26.9216 -2.98303
-24.9391 -26.5137 -2.603
-25.1752 -27.0431 -3.06202
-25.3391 -27.0587 -3.04762
-25.1083 -26.6584 -2.69627
-25.3947 -26.857 -2.84464
-25.0226 -26.9075 -2.87208
-24.3336 -26.0785 -2.14409
-25.4666 -26.9504 -2.92667
-25.3027 -26.81 -2.80695
-25.0176 -26.9236 -2.86438
-25.5548 -27.0442 -2.94981
-24.3539 -26.0979 -2.10107
-25.4929 -26.9653 -2.88853
-25.4033 -26.9073 -2.80299
-25.2655 -26.8503 -2.78808
-25.068 -26.6073 -2.54612
-25.3116 -26.8453 -2.74546
-25.1943 -26.8059 -2.68684
-25.1605 -26.7061 -2.59876
-25.4011 -26.9393 -2.78853
-25.1886 -26.9788 -2.80561
-24.9996 -26.5693 -2.44495
-24.4292 -26.2144 -2.12123
-25.296 -26.8884 -2.70811
-25.1745 -26.8591 -2.66744
-25.3524 -26.8685 -2.65766
-25.0163 -26.5851 -2.40681
-25.1021 -26.658 -2.4473
-25.3656 -26.8644 -2.61183
-25.4422 -27.1138 -2.80159
-25.236 -27.1771 -2.82272
-25.1311 -26.9604 -2.63987
-25.4918 -27.0674 -2.75297
-25.3707 -26.8996 -2.59618
-25.2158 -26.7642 -2.44962
-25.2591 -27.1755 -2.78296
-25.1272 -26.6925 -2.38293
-24.9559 -26.5755 -2.25767
-25.6673 -27.2418 -2.8495
-25.3332 -26.7972 -2.46639
-24.8762 -26.5565 -2.14586
-25.7135 -27.2572 -2.80303
-25.4689 -26.9944 -2.5811
-25.3288 -26.9969 -2.55261
-25.5717 -27.2283 -2.74767
-25.4866 -26.9863 -2.55733
-24.6184 -26.3781 -1.95658
-25.6033 -27.1575 -2.69618
-25.396 -26.9495 -2.47905
-23.8209 -26.2827 -1.74384
-25.4098 -27.1149 -2.5731
-25.0783 -26.6914 -2.20962
-24.1265 -26.2324 -1.73466
-25.253 -26.8233 -2.31371
-24.1435 -26.2321 -1.71798
-25.4196 -26.9566 -2.4325
-24.5959 -26.449 -1.90266
-24.5109 -26.3777 -1.85273
-25.6011 -27.1125 -2.54569
-25.514 -27.0486 -2.50008
-25.3636 -26.9076 -2.34548
-25.7347 -27.3052 -2.69597
-25.6722 -27.1939 -2.58767
-24.9733 -26.6854 -2.12191
-24.4931 -26.4124 -1.83556
-25.1741 -26.7938 -2.21287
-24.9761 -26.6996 -2.10345
-24.8724 -26.6581 -2.0545
-24.2852 -26.3092 -1.71616
-25.4604 -27.0077 -2.39116
-25.6036 -27.1365 -2.48421
-25.4423 -27.0052 -2.34889
-24.8458 -26.7037 -2.03535
-24.9717 -26.7313 -2.07766
-25.2887 -26.8707 -2.21217
-25.0914 -26.7724 -2.10756
-23.8177 -26.5335 -1.70929
-25.3803 -26.9352 -2.25823
-24.4799 -26.4928 -1.76382
-23.6293 -26.6802 -1.73499
-24.9892 -26.7767 -2.00733
-25.731 -27.422 -2.56828
-24.9918 -26.7965 -1.98394
-25.7106 -27.4564 -2.55282
-25.6447 -27.2072 -2.40156
-25.4151 -27.0122 -2.20237
-25.4019 -27.0085 -2.15471
-25.1067 -26.864 -1.99725
-24.4654 -26.5697 -1.69702
-25.2988 -26.9602 -2.1109
-24.6374 -26.579 -1.71968
-24.4424 -26.6093 -1.68035
-23.6731 -26.8809 -1.72643
-25.4796 -27.0886 -2.20997
-24.1802 -26.6711 -1.66654
-25.646 -27.618 -2.59135
-25.6977 -27.3519 -2.40334
