26.8923 25.3975 -0.94532
26.9322 25.4597 -0.908848
26.9331 25.3693 -0.918594
26.9059 25.4405 -0.933228
26.9884 25.5031 -0.910027
26.934 25.394 -0.994625
27.0006 25.4865 -0.950054
26.9576 25.4384 -0.983528
26.5979 26.2737 -1.25517
26.5813 26.2951 -1.28756
27.0024 25.5478 -0.985977
26.5557 26.3215 -1.32035
27.0381 25.499 -1.00497
26.5663 26.3277 -1.35162
27.0041 25.4411 -1.03647
26.7642 26.0647 -1.21214
27.0361 25.4463 -1.04644
26.9163 25.7625 -1.10271
26.9502 25.7484 -1.10954
27.0913 25.4974 -1.04784
26.9477 25.7588 -1.13904
26.8144 26.052 -1.25101
26.6126 26.3245 -1.41045
26.9002 25.8883 -1.18493
26.5808 26.3593 -1.45667
26.9265 25.8755 -1.18642
26.8438 26.0402 -1.2617
27.0446 25.4352 -1.10139
26.4814 26.4577 -1.57338
27.0807 25.4431 -1.09994
26.4659 26.4771 -1.60229
26.4561 26.4962 -1.63951
26.879 26.031 -1.28944
26.9183 25.9006 -1.25095
26.4926 26.4783 -1.64599
26.854 26.0602 -1.33574
27.131 25.4947 -1.10527
27.1037 25.5981 -1.13906
27.141 25.4936 -1.14872
27.012 25.7635 -1.2592
27.0961 25.4399 -1.19453
26.5392 26.4816 -1.72697
26.7227 26.2068 -1.5591
27.14 25.4427 -1.19353
26.7446 26.2085 -1.60027
26.7165 26.221 -1.59178
26.9377 25.9357 -1.39401
24.8462 25.2581 -1.61633
27.1888 25.4081 -1.18375
26.9044 25.9864 -1.50214
26.7991 26.1831 -1.60969
27.1365 25.4335 -1.25126
27.11 25.4621 -1.29072
26.8119 26.186 -1.64461
27.1459 25.5272 -1.26472
27.1378 25.6267 -1.30907
26.8757 26.0221 -1.56961
26.827 26.1728 -1.62976
27.1426 25.5343 -1.29745
26.8447 26.1621 -1.62703
24.8464 23.546 -1.53776
27.1718 25.4328 -1.26231
26.9155 25.9995 -1.56482
27.0824 25.7663 -1.3946
27.1552 25.5367 -1.33509
26.9542 25.9868 -1.59207
27.0399 25.8136 -1.48699
27.1922 25.528 -1.34727
27.0354 25.8203 -1.50306
27.1789 25.4403 -1.356
27.1551 25.6407 -1.39878
27.0419 25.8274 -1.53965
24.6701 24.5967 -1.3479
26.9876 25.9851 -1.64879
25.335 23.7072 -1.8951
27.0885 25.801 -1.54755
27.1384 25.3824 -1.39933
27.1971 25.5471 -1.44667
26.9617 26.0159 -1.70587
27.1268 25.6815 -1.50714
26.9363 26.0418 -1.74709
26.9275 26.0556 -1.77853
27.1445 25.6789 -1.53403
27.1997 25.4569 -1.44377
26.7788 24.9944 -1.79473
27.1956 25.3779 -1.45491
27.2038 25.5492 -1.48583
27.1337 25.7927 -1.5948
27.1978 25.4868 -1.48577
27.2365 25.5268 -1.45683
27.2032 25.6498 -1.53934
27.2279 25.4479 -1.46414
27.1299 25.8026 -1.62556
27.2126 25.4596 -1.48774
27.0942 25.8374 -1.68591
27.2374 25.5388 -1.50258
27.2094 25.4252 -1.9315
27.2331 25.6345 -1.5406
27.2167 25.653 -1.58392
27.2126 25.3815 -1.53296
27.2526 25.447 -1.53613
27.2338 25.6443 -1.58547
27.2375 25.3679 -1.51015
27.232 25.3796 -1.55328
27.2472 25.3672 -1.53396
27.2832 25.5244 -1.56001
27.2212 25.6643 -1.64433
27.2735 25.4423 -1.55483
27.1955 25.6892 -1.69425
27.2386 25.3907 -1.58881
27.3061 25.5123 -1.55815
27.1822 25.7046 -1.7315
27.2773 25.5362 -1.60006
27.2553 25.4468 -1.6448
27.1851 25.4308 -1.74928
27.2591 25.4946 -1.70035
27.1926 25.4343 -1.79755
27.2717 25.4729 -1.72583
26.829 25.7971 -0.9757
27.1984 25.4428 -1.87665
25.5317 24.2054 -1.00474
26.0242 24.3271 -1.83527
25.5896 25.1754 -1.60047
25.6868 24.6994 -0.82946
25.4662 25.5107 -1.49152
26.9421 25.1258 -2.03837
25.9034 24.2962 -1.34176
25.2643 23.6731 -2.00261
26.1885 24.9505 -0.847794
24.4813 25.0046 -1.31837
26.8209 25.0589 -1.69608
24.9971 23.4955 -1.74452
24.6439 23.6797 -1.64679
25.1422 23.6098 -1.55016
25.4904 24.1938 -1.08904
25.8389 24.9828 -1.5962
25.1356 25.0517 -0.932571
24.6391 23.6055 -1.69442
25.2511 23.8304 -1.34122
25.0522 24.757 -1.39779
25.4037 24.951 -0.858185
26.1557 26.1997 -0.887871
26.2494 24.8346 -1.08186
26.653 25.2785 -0.979843
24.3577 24.8541 -1.40514
25.5003 24.0927 -1.28854
25.1323 24.0641 -1.25546
25.3699 24.1524 -1.12981
25.1178 23.5759 -1.98437
25.967 24.304 -1.75128
26.0809 25.4286 -1.65018
25.8194 24.2247 -1.60962
25.0894 24.1461 -1.27887
26.2155 25.1751 -0.765339
27.1884 25.5854 -1.80286
25.7412 24.6342 -0.885986
26.324 25.7386 -1.45387
25.3465 23.9071 -1.26297
26.0777 24.4066 -1.6332
24.946 23.5068 -1.94841
26.4007 24.8469 -1.0876
26.134 24.7829 -0.980659
26.2914 25.0776 -0.82793
26.9463 25.2007 -1.65142
25.4475 24.285 -1.38132
26.1527 25.7415 -1.69078
26.291 24.9894 -0.883316
24.4535 23.7549 -1.68158
25.7075 25.2522 -1.53489
26.1476 24.8843 -0.844437
25.0469 23.5165 -1.94979
25.7547 25.7823 -1.53708
26.3476 24.9137 -0.898136
25.0148 25.2362 -0.966869
26.0986 25.0013 -0.973549
26.8424 25.0532 -1.84982
25.3674 23.8336 -1.48753
25.9115 25.1862 -1.27484
26.3907 25.2894 -0.79668
26.6553 25.4719 -1.0177
25.3665 25.1601 -0.823479
25.3891 25.0422 -0.836571
25.3431 25.1892 -0.844101
25.2386 25.3256 -0.873436
25.4793 25.0224 -0.81089
25.8054 24.8393 -0.821156
26.0749 24.3987 -1.51736
25.8146 25.8093 -1.58228
25.5826 25.6 -0.844666
25.5957 25.7122 -0.866848
26.0463 25.0063 -0.771755
25.7415 25.7557 -0.864723
26.088 24.9012 -0.796612
26.1028 24.9656 -0.761284
25.9038 25.5338 -0.814903
26.0924 25.0572 -0.761795
25.8944 25.5456 -0.831451
25.7777 24.737 -0.843998
25.8243 25.8064 -0.856445
26.1418 25.04 -0.762016
26.1559 24.9503 -0.765953
26.0967 25.0394 -0.797592
24.9031 23.5306 -1.58163
26.1591 25.1266 -0.781181
26.1816 25.0287 -0.790237
26.1934 25.0971 -0.757305
26.2166 25.0053 -0.760448
26.1971 25.1077 -0.785225
26.2316 24.9994 -0.779579
24.9986 25.4344 -1.59483
26.2479 25.159 -0.763382
26.2038 24.8857 -0.846134
26.2397 25.0783 -0.779305
24.9708 25.4499 -1.63164
26.2931 25.0556 -0.765606
26.262 25.1622 -0.782593
26.0434 26.0039 -0.862633
26.2465 24.8643 -0.861351
26.2414 24.9892 -0.837742
26.2831 25.15 -0.784134
26.292 25.001 -0.803616
26.3014 25.1992 -0.791473
26.1089 26.0841 -0.85878
25.0895 25.395 -1.6476
26.3374 25.2019 -0.767036
26.2955 24.9845 -0.839527
26.3525 25.1443 -0.780258
26.1305 26.0715 -0.863953
25.0735 25.4476 -1.69151
26.3313 24.9751 -0.816608
26.3554 25.0391 -0.799828
26.3376 25.2885 -0.793541
26.3393 25.0346 -0.842197
26.4347 25.3202 -0.760342
26.3887 25.088 -0.834232
26.4152 25.3383 -0.784557
26.4382 25.24 -0.799576
26.2966 24.865 -0.937111
25.7804 25.3567 -1.26975
26.4693 25.3033 -0.767174
25.7381 25.3865 -1.30262
26.3416 25.0518 -0.874012
26.4399 25.1018 -0.813885
26.4386 25.3258 -0.795277
26.2836 24.9517 -0.937248
26.4297 25.7226 -0.806038
26.301 24.8969 -0.943523
25.7761 25.3727 -1.31429
26.3448 24.9378 -0.947948
26.4953 25.3836 -0.794113
25.4284 25.7315 -1.60307
26.3384 26.0529 -0.894253
26.3263 24.8601 -0.956398
26.4867 25.1517 -0.839088
26.2562 24.8336 -0.996895
26.3017 24.8891 -0.997654
25.7506 25.391 -1.35484
26.5056 25.2156 -0.81337
26.5631 25.4233 -0.765366
26.5479 25.6298 -0.783142
26.5061 25.2226 -0.832912
26.5448 25.3391 -0.801003
25.4391 25.7408 -1.64596
26.5897 25.343 -0.792458
26.5988 25.3981 -0.788918
26.3716 24.9324 -0.940804
25.5568 25.7777 -1.57057
26.5421 25.2085 -0.844444
26.6192 25.4779 -0.764969
25.3304 25.706 -1.758
26.5401 25.2924 -0.841858
26.608 25.4974 -0.792816
26.3011 24.8415 -1.048
26.3094 24.8853 -1.02604
26.3795 24.9261 -0.973534
25.316 25.72 -1.78305
26.6373 25.3857 -0.787151
26.5085 26.0222 -0.867466
26.3474 24.8799 -1.04641
26.3872 24.8936 -0.994431
25.3346 25.7141 -1.7905
26.5455 25.9906 -0.863754
26.4071 24.9088 -0.969818
25.4313 25.7697 -1.72342
26.6287 25.4896 -0.804535
26.647 25.5801 -0.806313
26.3623 24.9402 -1.01434
25.3105 25.7374 -1.83192
26.3454 24.8477 -1.04456
25.3981 25.6891 -1.80111
26.6418 25.3053 -0.810043
26.6886 25.4389 -0.79493
26.6575 25.5615 -0.799744
25.7538 25.8929 -1.51826
26.7016 25.5265 -0.791466
25.7746 25.8805 -1.51556
26.6476 25.2993 -0.84594
26.6427 25.6924 -0.84557
25.7918 25.8822 -1.54541
25.7877 25.7843 -1.55542
26.6786 25.2987 -0.851055
25.8523 25.9369 -1.50297
25.7437 25.7048 -1.60119
26.7218 25.3404 -0.808254
25.7845 25.6661 -1.57429
26.7106 25.3375 -0.844063
26.3963 24.881 -1.08426
25.8084 25.6523 -1.56885
25.7928 25.8979 -1.58894
25.8481 25.628 -1.55585
25.8943 25.9433 -1.54684
25.5332 25.7588 -1.84125
26.7681 25.4001 -0.814571
26.7992 25.456 -0.804531
25.8465 25.752 -1.56924
26.795 25.3929 -0.839912
26.4332 24.853 -1.10193
25.4223 25.7238 -1.95497
25.8983 25.6969 -1.56648
26.814 25.6497 -0.820423
25.9959 25.5393 -1.50736
25.7886 25.5873 -1.68434
26.6189 25.3 -0.982746
26.831 25.4466 -0.817028
25.4055 25.6249 -2.00827
26.088 25.5771 -1.46238
26.7028 25.3139 -0.925568
26.4495 24.8555 -1.14211
25.8251 25.5665 -1.67441
26.0281 25.5215 -1.51354
26.6834 25.2485 -0.948299
26.604 25.5104 -1.02934
26.8618 25.5158 -0.817341
25.8564 25.5492 -1.6677
26.0354 25.5181 -1.51154
26.5882 25.5316 -1.05538
26.8105 25.4001 -0.880409
26.8414 25.5252 -0.830101
25.8962 25.5294 -1.66696
26.8944 25.4927 -0.820206
25.4711 25.7244 -2.0363
26.0489 25.5157 -1.5341
26.6908 25.4422 -1.00266
26.5253 26.3221 -1.20204
25.4861 25.7179 -2.0381
26.1515 25.6519 -1.48353
25.5071 25.5849 -2.02683
25.5322 25.6896 -2.01384
25.9473 25.5033 -1.66389
26.0945 25.6085 -1.55552
26.6617 25.3848 -1.04007
26.7353 25.4081 -0.991135
26.8434 25.4435 -0.894596
25.5764 25.6623 -1.98996
26.2008 25.7472 -1.50453
26.6101 25.4406 -1.09945
25.5385 25.5784 -2.05611
26.0626 25.5336 -1.60144
25.9773 25.3824 -1.66093
25.9975 25.4861 -1.66236
26.1483 25.6832 -1.54952
26.603 25.4576 -1.145
25.5646 25.5656 -2.05209
26.6642 26.1874 -1.17325
26.4984 24.8521 -1.20989
26.0377 25.3494 -1.64574
26.1489 25.6999 -1.59812
26.2121 25.7531 -1.54255
26.6934 25.4809 -1.10038
26.0371 25.5889 -1.69421
26.0898 25.3224 -1.6389
26.6134 25.4801 -1.19481
26.491 24.8493 -1.25293
26.6856 25.508 -1.15184
26.5509 24.9098 -1.19698
26.0988 25.5422 -1.68082
26.7382 26.1225 -1.17038
26.1387 25.5065 -1.65263
26.1413 25.3904 -1.6483
26.0912 25.6915 -1.72849
26.6506 25.4519 -1.20372
26.6781 25.5222 -1.17645
26.905 25.3892 -0.986
26.9498 25.483 -0.935493
26.7559 26.1145 -1.18273
26.5535 24.9911 -1.23447
26.0914 25.6635 -1.72215
26.302 25.6921 -1.55529
26.7893 26.0736 -1.16152
26.1855 25.4798 -1.64331
26.3696 25.6371 -1.48721
26.7199 25.4874 -1.15966
26.4969 24.8323 -1.29643
26.5432 24.8963 -1.25552
26.4155 25.5973 -1.4551
26.7423 25.4682 -1.14938
26.1203 25.7699 -1.75242
26.45 25.5931 -1.43071
26.5437 24.8491 -1.29003
26.6444 25.0003 -1.20227
26.154 25.7434 -1.73287
26.2283 25.4402 -1.65778
26.1791 25.7256 -1.72365
26.7117 25.4162 -1.2047
26.2512 25.56 -1.6646
26.5415 25.4858 -1.39927
26.1925 26.0931 -1.77758
26.5554 24.8874 -1.29548
26.6544 25.0365 -1.2366
26.6901 25.0473 -1.20098
26.2386 25.6873 -1.69101
26.6935 25.4277 -1.24109
26.808 25.43 -1.15887
26.9457 25.3974 -1.04244
26.2615 25.6651 -1.68904
26.6328 24.963 -1.24927
26.2769 25.5298 -1.65639
26.753 25.4039 -1.23347
26.8222 25.4144 -1.15029
26.9967 25.4814 -0.999336
26.6925 25.0107 -1.24163
26.706 25.0711 -1.21435
26.752 25.1397 -1.20745
26.2989 25.6399 -1.67989
26.738 25.0519 -1.20937
26.3964 25.9098 -1.66358
27.0401 25.5867 -1.04571
26.6566 24.99 -1.29118
26.775 25.1145 -1.21188
26.7979 25.1892 -1.20702
26.6828 25.383 -1.34056
26.9975 25.4081 -1.04597
26.9447 25.8416 -1.18755
26.695 25.0022 -1.29679
26.7361 25.0569 -1.25409
26.958 25.8188 -1.16566
26.6958 25.0303 -1.28596
26.9806 25.7926 -1.15231
26.8066 25.1858 -1.22893
26.8548 25.2295 -1.19167
26.4588 25.8678 -1.66444
26.4653 25.8672 -1.67409
26.9975 25.3628 -1.10186
26.6351 24.9808 -1.36205
26.905 25.2814 -1.18404
26.9472 25.8652 -1.23553
26.6804 24.9524 -1.34126
26.8463 25.1916 -1.24031
26.9984 25.3785 -1.14145
26.9389 25.3303 -1.19583
26.9337 25.9052 -1.28917
26.7996 25.0997 -1.29416
26.9397 25.2628 -1.1967
26.9591 25.3275 -1.16875
27.1369 25.3229 -1.49527
26.7307 25.0097 -1.34746
26.8311 25.1385 -1.25327
26.8907 25.2448 -1.24268
26.9359 25.2865 -1.18613
26.9834 25.3416 -1.14973
26.6859 24.945 -1.39751
26.7505 25.0809 -1.33997
27.0532 25.4286 -1.15035
26.8524 25.1762 -1.28808
27.0069 25.389 -1.18158
26.7968 25.0498 -1.35195
26.8932 25.1534 -1.29659
26.8959 25.1956 -1.24841
27.0039 25.3387 -1.1923
27.0981 25.4835 -1.14691
26.5551 24.8014 -1.53957
26.5985 24.7807 -1.51418
26.9404 25.2482 -1.25029
26.9989 25.3267 -1.23919
26.9002 25.1547 -1.34181
26.9404 25.2475 -1.29996
26.9739 25.2628 -1.26083
27.1302 25.4861 -1.1956
26.6307 24.8481 -1.51574
27.0402 25.2995 -1.2447
27.047 25.3549 -1.24311
27.1159 25.6197 -1.23815
26.7541 25.0315 -1.44638
27.1295 25.5002 -1.222
26.6808 24.9057 -1.54163
26.8986 25.1826 -1.40286
26.4358 24.7821 -1.28415
26.9437 25.2322 -1.37149
26.9903 25.2786 -1.33692
27.0516 25.3454 -1.29398
27.0168 25.2568 -1.32703
26.9518 25.2059 -1.38504
24.7299 23.6986 -1.64874
27.0213 25.261 -1.34799
27.1604 25.6172 -1.30765
26.9878 25.2136 -1.40493
26.5641 24.8286 -1.71756
27.1553 25.4113 -1.27877
26.9411 25.1516 -1.44952
27.0472 25.2589 -1.3938
26.9372 25.1744 -1.458
27.1193 25.7127 -1.43193
27.0341 25.2696 -1.39793
27.1196 25.7197 -1.44695
26.6398 24.8872 -1.70787
27.0161 25.2959 -1.43744
26.6166 24.8915 -1.7365
27.0377 25.2848 -1.44914
26.9284 25.2002 -1.52509
27.157 25.579 -1.4378
27.1281 25.7475 -1.51772
27.0049 25.2293 -1.48976
26.5439 24.8371 -1.85682
26.8656 25.1822 -1.64304
26.7531 24.9781 -1.68222
27.082 25.2507 -1.44091
26.636 24.906 -1.84218
26.9083 25.2472 -1.63949
27.0259 25.2194 -1.50335
26.7524 25.0144 -1.74513
26.7311 25.1156 -1.79774
27.0847 25.2632 -1.49787
26.701 25.1459 -1.85393
26.9895 25.2859 -1.60718
26.751 25.0104 -1.79526
26.9102 25.1616 -1.65917
26.6625 25.1907 -1.95303
27.1631 25.3996 -1.47284
26.6845 24.9408 -1.84405
27.0006 25.2844 -1.63737
27.0812 25.2896 -1.54621
26.5332 25.0918 -2.08796
26.9286 25.1559 -1.66507
26.7443 25.1266 -1.88309
26.8888 25.1038 -1.70765
26.9365 25.1568 -1.69149
26.9701 25.214 -1.66615
27.1537 25.3123 -1.50018
27.2008 25.3672 -1.48838
26.7378 24.9969 -1.84858
26.8952 25.1073 -1.74261
27.1439 25.3425 -1.54628
26.8467 25.0591 -1.79949
26.9974 25.2223 -1.69349
26.9858 25.2001 -1.70316
27.0306 25.2521 -1.65793
26.9355 25.1626 -1.73811
26.9242 25.1769 -1.77936
27.0424 25.2579 -1.6841
27.0926 25.3456 -1.65722
26.9008 25.2131 -1.8452
27.0564 25.2763 -1.69049
27.0003 25.2024 -1.74436
26.8972 25.1084 -1.84661
27.096 25.3025 -1.69503
27.1486 25.3858 -1.69193
26.9444 25.1995 -1.84639
27.1327 25.3098 -1.69935
26.8929 25.1039 -1.88907
27.0316 25.21 -1.79131
27.2633 25.4845 -1.65341
26.9282 25.1138 -1.89579
27.0384 25.2872 -1.82835
27.1767 25.3684 -1.70235
26.8509 25.0425 -1.94074
27.0954 25.2969 -1.79581
27.0445 25.2146 -1.84757
27.1891 25.3753 -1.74789
27.2394 25.4026 -1.70411
26.9052 25.0945 -1.99125
27.1009 25.274 -1.8499
27.2056 25.3786 -1.79954
26.2289 24.6513 -1.26377
26.9919 25.1557 -1.95084
27.0346 25.2026 -1.89427
27.1496 25.3382 -1.84758
26.8768 25.0776 -2.0386
27.2307 25.4665 -1.80271
27.0333 25.3764 -2.02749
27.0485 25.3627 -2.01847
27.1102 25.2943 -1.93929
27.2268 25.3828 -1.84974
27.0907 25.2423 -1.9375
27.0138 25.1863 -2.05086
27.1741 25.3428 -1.9175
27.1895 25.3417 -1.94658
26.9516 25.1456 -2.15149
27.0322 25.1849 -2.09374
27.0874 25.2448 -2.05788
27.1989 25.345 -1.98175
27.102 25.2464 -2.09317
27.15 25.2982 -2.04321
25.7779 24.7455 -0.796307
27.0489 25.2008 -2.15593
27.1526 25.3079 -2.08164
26.1444 24.4364 -1.63897
24.6573 23.5714 -1.90418
26.4386 24.6905 -1.54688
24.6971 23.5912 -1.70102
25.5376 23.9045 -1.50167
25.2776 25.2762 -0.870483
25.5302 23.9427 -1.45498
25.4014 23.9301 -1.29562
25.0998 23.6897 -1.4264
27.1842 25.3441 -1.59555
25.9955 24.4366 -1.30111
25.7155 24.2365 -1.30791
26.0089 24.9167 -1.41112
24.1182 24.3062 -1.61433
25.0474 23.6502 -1.48686
26.4144 25.7067 -1.29406
24.6835 25.1457 -1.19651
25.9619 24.3618 -1.33653
26.2566 24.9919 -0.871933
26.2958 24.5982 -1.74654
24.8208 23.6394 -1.46355
25.787 24.3622 -2.07714
26.0208 24.3575 -1.89357
25.9514 24.834 -0.862923
26.7465 25.0887 -1.24138
25.9308 24.3856 -1.29953
26.237 25.8393 -1.4823
25.6931 25.3264 -1.33366
25.4445 24.2067 -1.09037
25.8238 24.1819 -1.57006
26.3787 24.787 -1.19258
25.0931 23.5851 -1.62699
25.9025 24.2384 -1.58802
24.7091 25.0081 -1.43114
25.8118 25.0873 -1.39485
25.3713 25.5239 -1.55487
25.2931 23.8339 -1.38438
27.2584 25.4885 -1.54393
26.7748 24.9514 -1.68373
26.0889 24.3542 -1.64572
25.6544 24.7298 -0.835724
26.4347 24.7157 -1.3456
24.6695 23.5206 -1.73008
24.4904 24.8342 -1.33729
26.9404 25.3413 -1.23331
24.7576 25.0002 -1.15017
25.0986 25.2929 -0.936165
25.1866 25.2334 -0.900604
25.253 25.184 -0.868629
25.2924 25.1323 -0.858383
25.2507 25.295 -0.875607
25.2998 24.8615 -0.897526
26.7521 25.3331 -1.2818
25.4016 25.0992 -0.830376
25.4192 25.0628 -0.819408
25.4472 24.6894 -0.877747
25.5015 24.9035 -0.809589
25.4602 24.6802 -0.869469
25.4742 25.0354 -0.82959
25.3508 25.4613 -0.879417
24.6897 24.9945 -1.40129
25.608 24.8444 -0.786011
25.3956 25.5504 -0.881832
25.6481 24.7414 -0.801483
25.642 24.8244 -0.783825
25.5863 24.5448 -0.862526
25.5043 25.5836 -0.866486
25.6815 24.7216 -0.804234
25.6396 24.4944 -0.86375
25.6974 24.7122 -0.809502
25.6495 24.4399 -0.892876
25.6891 24.7364 -0.847466
25.5532 24.3308 -0.962276
25.6302 24.362 -0.899742
25.746 24.7746 -0.808323
25.6897 24.4898 -0.902393
25.749 24.5898 -0.850136
25.5918 24.3412 -0.959026
25.7005 24.5591 -0.870796
25.6952 24.6556 -0.879234
25.797 24.8382 -0.810532
25.5446 24.331 -0.990273
25.6376 24.4344 -0.934483
25.7503 24.536 -0.856926
25.7468 24.794 -0.850388
25.8358 24.7959 -0.804829
25.5883 24.2964 -0.995087
25.8441 24.7264 -0.805641
25.5915 24.2564 -1.01173
25.7159 25.7908 -0.866627
25.65 24.3546 -0.951866
25.7048 24.4449 -0.92923
25.7417 24.5394 -0.887726
25.6986 24.4143 -0.93906
25.7856 24.5476 -0.869209
25.8307 24.8222 -0.824478
25.5879 24.2554 -1.02904
25.6487 24.3983 -0.983688
25.8459 24.6502 -0.851254
25.8574 24.7276 -0.822849
25.8856 24.7789 -0.80011
25.9012 24.855 -0.803116
25.7586 25.76 -0.876724
25.7561 24.4689 -0.908501
25.7888 24.5466 -0.896427
25.7733 24.6201 -0.893135
25.8041 24.5931 -0.895905
25.935 24.9278 -0.800659
25.8248 24.6698 -0.872787
25.8841 24.699 -0.849426
25.9488 24.9115 -0.792839
25.8376 25.8424 -0.867599
25.8409 24.5962 -0.878067
25.9342 24.8275 -0.805367
25.8366 25.8456 -0.883362
25.9167 24.7693 -0.822712
25.9503 24.7965 -0.793098
25.9998 24.9619 -0.769249
24.7581 25.2038 -1.73843
25.9436 24.7496 -0.84726
25.9922 24.8022 -0.805107
25.9845 24.9829 -0.784988
24.785 25.192 -1.74098
25.9355 24.6997 -0.861965
26.0372 24.8565 -0.794502
26.0326 24.9437 -0.790943
24.9627 25.3122 -1.64714
24.9817 25.4108 -1.61233
26.0437 25.035 -0.789284
24.9845 25.4138 -1.62443
25.9843 24.8191 -0.832653
25.9958 24.7409 -0.857674
25.0856 25.4972 -1.59275
24.9841 25.3135 -1.68235
25.0447 25.4012 -1.65037
25.0392 25.4889 -1.64079
26.041 24.7945 -0.842983
26.1266 25.2664 -0.776058
26.0499 26.0387 -0.886459
25.0706 25.4981 -1.64765
26.1399 24.9496 -0.783085
25.1386 25.5446 -1.60984
26.1366 24.8943 -0.803276
25.1396 25.4586 -1.6466
25.5508 24.4071 -1.281
25.0536 25.2941 -1.73433
25.202 25.5486 -1.63941
25.2227 25.6421 -1.60705
25.5728 24.4032 -1.27285
25.1587 25.4565 -1.67269
25.2645 25.6061 -1.58591
26.1885 24.9345 -0.803345
26.0813 24.8386 -0.880699
25.0966 25.1499 -1.74653
26.1854 26.0319 -0.875095
25.1239 25.4977 -1.72641
25.2292 25.5288 -1.64893
25.4381 25.545 -1.48608
25.4625 25.5472 -1.46515
25.1398 25.3718 -1.74431
25.4898 25.5251 -1.45698
26.3022 25.215 -0.767944
25.7363 24.1497 -1.93633
25.1549 25.1339 -1.74076
25.1361 25.2548 -1.76459
26.2935 25.8889 -0.845863
25.1572 25.3674 -1.75937
25.5674 25.4545 -1.41708
26.0516 25.0262 -0.983414
25.0647 25.0829 -1.82256
25.4069 25.506 -1.58781
25.1651 25.0111 -1.74763
25.1686 25.3707 -1.7868
25.1379 25.5272 -1.82514
25.3057 25.4965 -1.69367
25.4403 25.4844 -1.56737
26.3443 25.0951 -0.807526
25.2344 25.0847 -1.73793
25.2007 25.3537 -1.78627
25.4894 25.4397 -1.53731
25.7408 25.2895 -1.31256
26.1541 24.9292 -0.933559
26.3 25.0463 -0.832268
25.2319 24.9731 -1.73071
25.1897 25.2272 -1.77445
25.2579 24.9574 -1.72131
26.3828 25.7764 -0.829262
26.3978 25.248 -0.791203
25.2883 25.0542 -1.73069
26.3955 25.7612 -0.828041
25.2346 25.3405 -1.7932
26.1759 24.8297 -0.949364
26.2434 24.8663 -0.898285
26.4415 25.6899 -0.802727
25.2939 25.432 -1.78331
25.3471 24.9118 -1.69305
25.2891 25.1774 -1.76435
25.2903 25.2909 -1.78619
26.2852 24.9101 -0.903309
26.3951 25.0526 -0.803123
25.3361 24.9245 -1.69553
25.6212 25.2206 -1.48998
26.1569 24.8611 -0.991222
26.2507 24.8579 -0.949242
26.3248 24.9483 -0.855679
25.75 24.2339 -1.29467
25.3511 24.7979 -1.69267
25.4037 24.9883 -1.68433
25.2915 25.1426 -1.76003
26.1478 24.8765 -1.01195
26.3999 25.1624 -0.826115
25.354 25.1476 -1.75769
25.2972 25.4171 -1.79263
25.6471 25.2021 -1.4989
26.1424 24.8921 -1.03971
26.4264 25.1294 -0.811012
25.4361 24.9636 -1.69013
25.3389 25.3958 -1.7975
25.6849 25.1957 -1.49883
25.8315 25.1307 -1.33725
26.486 25.2688 -0.786411
25.3449 25.2503 -1.78437
25.6995 25.9414 -1.56042
25.8507 24.2903 -1.26073
26.4996 25.3535 -0.791317
25.3823 25.1445 -1.76265
25.7658 25.8583 -1.50784
25.4147 25.0901 -1.73438
25.3998 25.2311 -1.76816
25.5001 25.2906 -1.69939
26.5014 25.1591 -0.80476
25.4476 25.0544 -1.71053
25.4087 25.2287 -1.77597
25.7959 24.2566 -1.30124
26.501 25.1833 -0.842594
26.5301 25.4792 -0.820866
25.4381 25.2289 -1.77925
25.6099 25.1595 -1.59982
26.2891 24.8494 -0.995541
25.4032 24.7893 -1.75811
26.3423 24.9776 -0.940895
25.8924 24.3445 -1.28156
26.5362 25.241 -0.818863
26.5857 25.528 -0.802235
25.6381 25.1427 -1.60309
25.8452 25.0554 -1.43276
25.8629 25.9181 -1.51402
25.492 24.7108 -1.6864
26.5536 25.4647 -0.835361
25.6352 25.1537 -1.62859
25.952 25.0577 -1.34421
26.1116 24.9512 -1.14915
25.8764 25.9069 -1.51463
25.9104 24.3999 -1.28839
25.5411 24.8896 -1.68621
25.9604 24.398 -1.25979
25.5307 24.7815 -1.68207
25.9763 25.0395 -1.35134
26.3518 24.8947 -0.995441
25.8794 24.3059 -1.31273
25.5861 24.7925 -1.65274
25.8564 26.1267 -1.61276
25.9356 24.3468 -1.29785
26.6079 25.3973 -0.823315
25.8998 26.075 -1.59158
25.9806 26.1003 -1.51329
25.9645 24.473 -1.28419
25.5892 24.8401 -1.6637
25.792 25.0252 -1.54142
25.9927 26.1043 -1.53703
25.9815 24.3977 -1.2682
25.2456 23.7446 -1.65566
25.992 24.4351 -1.26226
26.6687 25.5774 -0.821857
26.0874 24.9451 -1.25074
25.9224 25.8976 -1.56714
25.9155 24.2609 -1.31651
25.9794 26.1265 -1.55224
25.6339 24.8472 -1.68511
25.8989 25.6469 -1.55962
25.9575 26.0101 -1.56999
25.9747 24.3042 -1.27986
25.6209 24.976 -1.71779
25.9431 24.9975 -1.43874
25.9093 25.7892 -1.59759
25.9593 26.0185 -1.58645
26.0514 26.0393 -1.51334
26.2036 25.927 -1.35326
26.0485 24.4961 -1.25904
25.6478 24.9397 -1.69818
26.1884 24.8353 -1.20302
26.3034 24.7961 -1.08212
25.8826 24.286 -1.40007
25.9832 26.0066 -1.60233
26.0456 24.442 -1.28981
26.6801 25.3129 -0.814758
26.6905 25.4281 -0.825127
26.39 24.8907 -1.04855
25.9503 25.6004 -1.54898
25.9308 25.7709 -1.59687
25.9951 24.3929 -1.34138
26.0816 24.4987 -1.25
26.6539 25.3872 -0.876438
26.0992 24.8355 -1.28943
26.0953 25.9981 -1.52151
26.0574 24.4932 -1.29058
26.1474 24.8015 -1.26057
26.0004 25.5474 -1.52351
26.0934 25.9829 -1.49463
26.1908 24.8511 -1.23491
26.3261 24.7865 -1.09839
25.9893 25.8658 -1.61242
25.9921 26.0266 -1.64844
26.3629 25.8429 -1.2589
25.7468 24.988 -1.69386
26.1406 25.9397 -1.50433
26.3092 24.7949 -1.13964
26.1512 25.6387 -1.46147
25.9861 26.0521 -1.6816
26.3908 25.8106 -1.25398
26.1259 24.5451 -1.26652
26.1415 24.6046 -1.26282
26.0955 24.7441 -1.34369
26.8072 25.5301 -0.807785
26.2205 24.8244 -1.23195
26.3445 24.7927 -1.14547
25.9399 24.2976 -1.39554
26.0455 25.9651 -1.62662
25.9974 24.385 -1.38709
26.3314 25.7842 -1.32788
26.7958 25.4417 -0.838943
26.8109 25.5417 -0.82597
26.065 25.9431 -1.61951
26.1835 25.8935 -1.50083
26.4969 25.6065 -1.14576
26.1423 24.6279 -1.29031
26.1329 24.7526 -1.33025
26.1846 24.8561 -1.2902
26.0408 24.4036 -1.35751
26.3561 25.756 -1.32201
26.1443 24.5892 -1.2927
26.1874 24.7796 -1.29536
26.1748 25.6353 -1.49166
26.2042 25.8502 -1.49871
26.1962 24.6377 -1.25787
26.3952 24.8363 -1.15105
26.1954 25.7796 -1.54472
26.5458 25.5457 -1.13771
26.4227 25.9796 -1.33433
26.7684 25.3802 -0.876091
26.1913 24.5954 -1.3076
25.9726 25.5228 -1.67991
26.246 25.7979 -1.494
26.4905 25.5388 -1.19679
26.2764 25.7914 -1.46576
26.091 24.4486 -1.34846
26.1401 24.4906 -1.35392
26.1516 24.5399 -1.33516
26.2515 24.6872 -1.25438
26.302 25.7614 -1.45692
26.5137 25.5107 -1.18922
26.5918 25.5071 -1.11885
26.5965 25.6516 -1.14972
26.2497 24.6459 -1.28804
26.293 24.6927 -1.25359
26.7916 25.8687 -1.00061
26.3422 24.7846 -1.1934
26.1977 25.6957 -1.5506
26.5322 25.4901 -1.1862
26.3449 24.7471 -1.20089
26.4057 24.842 -1.19508
26.0587 25.5743 -1.66943
26.559 25.9352 -1.27787
26.6547 25.59 -1.14886
26.8547 25.748 -0.958851
26.3403 24.7343 -1.24461
26.4055 24.757 -1.16709
26.0469 25.6101 -1.72129
26.5872 25.9057 -1.2807
26.0702 25.5841 -1.70735
26.3772 25.6741 -1.43206
26.0697 24.3682 -1.42675
26.5777 25.4554 -1.20206
26.0978 24.4157 -1.38974
26.6309 25.4893 -1.15109
26.2963 24.6857 -1.28488
26.3951 24.7879 -1.24698
25.8913 24.2373 -1.55321
26.4057 25.6432 -1.4263
26.2487 24.5856 -1.34629
26.8522 25.4434 -0.920788
26.8938 25.6772 -0.937309
26.2089 24.5192 -1.34929
26.162 25.7744 -1.71697
26.6459 25.5043 -1.19436
26.1306 24.4915 -1.441
26.1829 24.5475 -1.39341
26.6297 25.8505 -1.2714
26.3327 24.6812 -1.29745
26.158 25.4976 -1.67748
25.9286 24.2151 -1.57561
26.1841 25.753 -1.71346
26.429 25.622 -1.42799
26.2561 24.6342 -1.34361
26.9434 25.5822 -0.904564
25.9801 24.2735 -1.5559
26.3439 25.6407 -1.53976
26.6767 25.5912 -1.19419
26.6615 25.8107 -1.26633
26.2882 24.64 -1.3466
26.9556 25.6081 -0.948734
26.9319 25.6493 -0.959824
26.4559 24.8314 -1.25255
26.3709 25.6083 -1.52702
26.6293 25.7386 -1.30988
26.2572 24.5857 -1.3872
26.4297 24.7789 -1.26523
26.4749 24.8164 -1.21772
26.0427 24.325 -1.55192
26.6834 25.4719 -1.20374
26.2878 24.6441 -1.39553
26.3473 24.6829 -1.34565
26.5091 24.8857 -1.23981
26.2867 25.636 -1.66704
25.9856 24.2899 -1.60095
26.6466 25.4378 -1.24899
26.2422 25.5571 -1.68687
26.4159 25.5591 -1.5075
26.744 25.6994 -1.24371
26.0933 24.3946 -1.54944
26.7288 25.7266 -1.25625
26.459 24.7565 -1.26398
26.03 24.3319 -1.5953
26.687 25.6824 -1.2966
26.2954 24.5611 -1.38733
26.3182 25.6136 -1.67675
26.4588 25.5105 -1.50137
26.6644 25.4124 -1.26788
26.3019 24.6596 -1.43464
26.3479 25.5901 -1.65713
26.7319 25.4447 -1.23718
26.8486 25.4668 -1.10061
26.3455 24.6943 -1.40221
26.6119 24.9888 -1.21219
26.4848 25.4805 -1.50216
26.5849 25.4331 -1.39146
26.1424 24.4383 -1.55407
26.7149 25.4756 -1.25563
26.768 25.5147 -1.21245
26.8418 25.499 -1.13121
26.3518 25.5856 -1.68036
26.0923 24.3957 -1.59391
26.938 25.4269 -1.02234
26.6337 24.9673 -1.20752
27.0318 25.5559 -0.997601
26.6035 25.0259 -1.26935
26.5225 25.4445 -1.48799
26.646 25.3862 -1.34502
26.2206 24.4689 -1.50739
26.8127 25.4519 -1.19404
26.817 25.6062 -1.23056
26.43 24.7281 -1.3695
26.1997 24.4834 -1.55339
26.832 25.5915 -1.2335
26.3646 24.7138 -1.45388
26.7317 25.0799 -1.20269
26.1599 24.4332 -1.59069
26.7999 25.5063 -1.24765
27.003 25.4815 -1.02549
26.5244 24.8316 -1.34713
26.6453 24.9893 -1.24979
26.6547 25.366 -1.36736
26.8559 25.5567 -1.2241
26.3381 24.649 -1.47794
26.7317 25.4037 -1.30105
26.7718 25.4329 -1.27968
26.3921 24.697 -1.46159
27.0581 25.5617 -1.03947
26.745 25.4372 -1.30418
26.2232 24.4845 -1.57675
26.2508 24.5308 -1.55166
26.58 24.8843 -1.34613
26.8807 25.5283 -1.22383
26.5391 24.8394 -1.38829
25.9683 24.3232 -1.8149
26.8329 25.5078 -1.29773
26.2704 24.54 -1.5644
26.7097 25.044 -1.24265
27.075 25.5533 -1.05354
26.4646 24.7262 -1.43267
26.2755 24.5419 -1.58361
26.3834 24.7302 -1.54051
26.5641 24.81 -1.36588
26.3145 24.6062 -1.59074
27.0839 25.5616 -1.07426
26.7608 25.1016 -1.28634
26.0392 24.4715 -1.84122
26.3406 24.6825 -1.58873
26.4292 24.6859 -1.50661
27.086 25.5723 -1.08841
27.014 25.4252 -1.12766
26.412 24.7126 -1.5487
25.9887 24.3399 -1.88946
26.8983 25.2708 -1.23936
26.342 24.6397 -1.60052
26.7467 25.0516 -1.33159
26.0858 24.4459 -1.84789
26.3833 24.6491 -1.58548
26.6212 24.871 -1.3913
26.0578 24.399 -1.83715
26.1426 24.4969 -1.80865
26.8359 25.1359 -1.28333
26.1916 24.5007 -1.79686
26.803 25.0904 -1.33569
26.4931 24.7502 -1.55624
26.2377 24.541 -1.75316
26.5839 24.853 -1.50467
26.7133 24.9998 -1.4052
26.0853 24.4469 -1.89967
26.1548 24.4976 -1.88159
26.8512 25.1466 -1.32479
26.431 24.7299 -1.64031
26.8771 25.1002 -1.29138
26.4919 24.7553 -1.58377
26.8794 25.1176 -1.32301
26.4562 24.7318 -1.68186
26.9138 25.2019 -1.3327
26.2309 24.526 -1.83509
26.3531 24.6416 -1.74754
26.5583 24.8067 -1.58248
26.9327 25.187 -1.3395
26.9531 25.2874 -1.34523
26.2961 24.5996 -1.83976
26.4411 24.7017 -1.6852
26.2993 24.5917 -1.79991
26.3503 24.6497 -1.79094
27.0993 25.4191 -1.24039
26.6463 24.9259 -1.55932
26.8987 25.1443 -1.39632
26.6531 24.8833 -1.55097
26.6133 24.87 -1.60178
27.0836 25.3546 -1.297
26.4058 24.7043 -1.80629
26.6317 24.848 -1.58486
26.9097 25.151 -1.42466
26.2593 24.6371 -1.93944
26.4876 24.7965 -1.74984
26.6078 24.902 -1.66761
26.4899 24.7513 -1.76165
26.5275 24.7923 -1.7447
26.8595 25.1043 -1.47998
26.4314 24.7047 -1.79195
26.4717 24.7484 -1.78485
26.3969 24.6971 -1.85261
26.6153 24.9203 -1.72591
27.1067 25.3828 -1.36532
26.3992 24.7285 -1.90398
26.5458 24.7911 -1.78065
26.48 24.7628 -1.84759
26.887 25.1018 -1.50843
27.119 25.3771 -1.376
26.9348 25.1854 -1.51974
26.6359 24.8999 -1.75431
27.2087 25.578 -1.415
26.9605 25.1609 -1.52181
27.0129 25.1941 -1.47474
26.4674 24.9379 -2.02289
26.6544 24.9118 -1.79635
26.6949 24.9767 -1.76398
27.153 25.3612 -1.40498
26.7025 24.9485 -1.74599
26.707 24.982 -1.79889
26.8029 25.0961 -1.74889
27.033 25.1834 -1.49
26.5209 25.017 -2.0484
26.9893 25.2289 -1.65113
27.0385 25.2802 -1.64383
27.0313 25.2704 -1.61782
26.851 25.0843 -1.78469
27.0692 25.3771 -1.64655
27.2381 25.4815 -1.50745
26.954 25.181 -1.73877
26.7753 25.0915 -1.92131
26.9132 25.1291 -1.75141
27.2213 25.3704 -1.51435
26.9067 25.1439 -1.80243
27.0232 25.2417 -1.75194
27.2687 25.5135 -1.58743
26.9144 25.1665 -1.8569
27.1843 25.3676 -1.6268
27.2755 25.5127 -1.59587
26.9469 25.1313 -1.84917
27.0884 25.2966 -1.75262
27.0008 25.1834 -1.847
26.9637 25.1352 -1.88534
27.0612 25.2347 -1.83398
27.1735 25.3386 -1.75391
27.1917 25.535 -1.85791
27.268 25.4682 -1.70216
26.8501 25.0508 -2.00333
27.0768 25.2408 -1.85262
26.9428 25.2296 -2.02117
26.8475 25.0819 -2.05391
27.0403 25.2036 -1.94229
27.2069 25.3842 -1.84142
26.9962 25.1483 -1.99365
26.9377 25.1003 -2.05119
27.0508 25.2751 -2.0454
27.1245 25.2663 -1.95514
27.1693 25.336 -1.93191
27.2248 25.379 -1.88493
27.0205 25.18 -2.06647
24.8448 23.4875 -1.63518
24.9483 23.4917 -1.89266
25.6007 25.2441 -1.50178
25.0163 24.041 -1.26734
24.5871 23.7371 -1.64412
25.0881 23.5525 -1.79728
25.7625 25.0788 -1.48474
25.3226 23.7082 -1.94278
26.6491 25.872 -1.22507
25.4286 24.3911 -1.43567
25.7804 25.7667 -0.860367
24.7916 25.2316 -1.68552
25.3185 23.8315 -1.70314
25.6605 25.3744 -1.36413
25.471 24.8689 -0.870934
26.3466 24.6448 -1.70845
25.4242 24.0447 -1.16369
25.8328 24.2076 -1.43592
25.4397 25.3956 -1.70467
25.476 23.894 -1.5368
25.0228 25.4468 -1.60733
25.1717 25.0143 -0.918846
24.7801 23.5398 -1.56874
25.5276 24.2093 -1.08496
25.556 24.561 -0.876141
25.0994 23.6089 -1.46148
25.6917 24.1006 -1.92854
24.8218 24.1995 -1.30463
24.3776 24.6074 -1.39812
24.3936 24.5001 -1.3989
24.2949 24.652 -1.45141
24.3789 24.8313 -1.41109
24.4403 24.9108 -1.36523
24.5077 24.9574 -1.31321
24.6503 25.0719 -1.20399
24.7177 25.1241 -1.15216
24.3758 24.7356 -1.43071
24.5303 24.734 -1.31795
24.4489 24.5735 -1.40571
24.4061 24.6873 -1.41301
24.5495 24.714 -1.32814
25.0376 25.277 -0.953552
25.0406 25.2434 -0.962784
24.4576 24.5764 -1.42617
25.1086 25.3409 -0.940903
24.5873 24.4929 -1.36028
24.6096 24.4689 -1.3476
24.622 24.5661 -1.33842
25.5366 24.1755 -0.628357
25.2336 25.1925 -0.874149
24.6578 24.4395 -1.33593
25.2619 25.1576 -0.875111
24.7332 24.3851 -1.2943
25.3058 25.1005 -0.862411
24.7153 24.4065 -1.32813
25.3436 25.0452 -0.852196
25.3792 25.1458 -0.833397
25.2888 25.4195 -0.899212
25.4033 25.1132 -0.815708
24.7527 24.2855 -1.30865
24.7076 24.2276 -1.36187
24.8516 24.1373 -1.29667
25.4519 25.5213 -0.871605
25.5014 25.6259 -0.877747
24.8772 24.1234 -1.30858
24.944 24.0855 -1.2963
24.7506 25.2865 -1.51621
24.9372 24.007 -1.32685
24.9135 24.0217 -1.33952
24.9858 24.0605 -1.28204
24.7349 25.2015 -1.58013
25.5474 24.7517 -0.855217
25.0356 24.0295 -1.26096
24.9954 24.3495 -1.31881
25.5414 24.5742 -0.878506
25.5933 24.6886 -0.853359
24.987 23.9928 -1.30371
25.046 24.028 -1.27399
24.9785 24.3782 -1.33395
24.8032 25.2921 -1.58271
25.0605 24.0172 -1.26156
24.7499 25.2318 -1.65024
25.0125 23.966 -1.30846
25.0444 23.9487 -1.30132
24.8334 25.2839 -1.60382
24.8954 25.3326 -1.54391
25.7779 25.7895 -0.879951
25.5173 24.3524 -0.97916
25.8224 25.9186 -0.884964
25.418 24.1876 -1.06961
25.4878 24.2298 -1.03877
25.81 24.8 -0.793629
25.4 24.1441 -1.09687
25.4036 24.1909 -1.09805
25.4537 24.2309 -1.05131
25.7968 24.6367 -0.838787
25.3497 24.0528 -1.14993
25.4447 24.1692 -1.06637
25.5547 24.2519 -1.00051
25.8776 25.8285 -0.873528
25.7356 24.5028 -0.864532
25.1958 23.9449 -1.25784
25.2667 23.9872 -1.21031
25.855 24.8968 -0.808041
25.414 24.0399 -1.09093
25.5031 24.1943 -1.04437
25.538 24.2951 -1.00296
25.8962 25.7962 -0.867851
25.1856 23.8788 -1.29489
25.4454 24.1443 -1.09759
25.947 25.4971 -0.814926
25.8537 24.6907 -0.840778
25.3015 23.94 -1.23109
25.5004 24.1496 -1.088
25.5387 24.1986 -1.04503
25.2917 23.9439 -1.20729
25.3429 23.9946 -1.20086
25.9178 24.9627 -0.822205
25.5495 24.2748 -1.06346
25.2923 23.8871 -1.2891
25.3519 23.9533 -1.20474
25.4007 23.9902 -1.20019
25.3999 24.0444 -1.19437
25.5496 24.2799 -1.0755
26.03 26.0098 -0.884712
25.2782 23.8454 -1.25999
25.307 23.8972 -1.25682
26.0466 25.5523 -0.838638
25.6124 24.3097 -1.03905
25.7068 24.3981 -0.986385
25.7367 24.4564 -0.960354
25.2049 23.7545 -1.34642
25.1647 25.5946 -1.65051
25.6737 24.3398 -1.00513
25.8992 24.6574 -0.858437
25.6714 24.349 -1.02074
25.7526 24.4597 -0.991749
25.4295 23.9826 -1.20478
25.625 24.3126 -1.06657
25.6688 24.3571 -1.0338
25.3088 25.5596 -1.56429
25.8983 24.6721 -0.879078
25.3943 23.9354 -1.24649
25.4809 24.103 -1.18674
25.7135 24.4124 -1.02521
26.0358 24.811 -0.798748
25.4467 24.0487 -1.2441
26.0367 24.8391 -0.83559
25.4148 24.183 -1.29623
25.3609 25.5296 -1.59387
25.9953 24.8014 -0.88295
26.1292 25.0742 -0.784092
25.7761 24.4489 -1.00867
25.147 25.0958 -1.73381
25.1182 25.2775 -1.7856
25.4886 25.4891 -1.492
25.3477 23.8856 -1.34397
25.4335 24.1747 -1.30647
25.7612 24.4847 -1.05225
26.0277 24.7446 -0.853889
26.1012 24.8894 -0.836895
25.4952 24.5235 -1.32084
25.1496 25.2523 -1.78524
26.1067 25.0197 -0.844093
25.3414 23.8363 -1.40168
26.0717 24.8106 -0.849689
25.204 25.1985 -1.76524
25.5538 25.4051 -1.47419
25.4524 24.3769 -1.37714
25.4357 25.478 -1.59317
25.5742 25.3854 -1.46321
25.3836 23.8974 -1.34479
25.4595 24.2669 -1.35375
25.4611 25.4406 -1.59219
26.159 24.9428 -0.830311
26.1744 25.0704 -0.84211
25.2561 25.1505 -1.75347
25.3569 25.4688 -1.72823
25.3894 23.8851 -1.39385
25.9709 25.0802 -1.0599
26.1386 24.8611 -0.856129
25.3129 24.9319 -1.65965
25.4938 25.4074 -1.59387
25.4411 23.9445 -1.34489
26.0033 25.0531 -1.05816
26.2057 25.0139 -0.825329
25.3608 25.4799 -1.75253
25.5431 25.3383 -1.56351
25.7312 25.3095 -1.3753
25.5967 23.8508 -1.19891
25.3047 25.1126 -1.75599
25.3086 25.2578 -1.78286
25.5025 24.1351 -1.34389
25.4184 25.4161 -1.73365
25.349 23.8355 -1.4515
25.7038 25.2408 -1.43887
25.5722 24.082 -1.29772
25.3474 25.0673 -1.73484
25.4423 25.3915 -1.72894
25.5427 24.0911 -1.3166
25.3562 25.2099 -1.77842
26.317 25.1528 -0.824203
25.3732 23.8181 -1.45332
26.1361 24.9837 -0.998486
25.5349 25.2587 -1.64886
25.3838 23.8506 -1.44959
25.6911 25.2418 -1.48227
26.0947 24.9413 -1.0476
25.5987 24.1364 -1.30863
25.4176 25.3094 -1.79423
25.3002 23.7035 -1.52024
25.722 25.249 -1.4779
25.5727 23.9138 -1.3022
25.5551 24.1177 -1.37085
25.6381 24.1306 -1.31136
25.4283 25.1413 -1.75422
25.4558 25.2602 -1.76701
25.8029 25.1299 -1.39107
25.4394 23.8896 -1.45159
25.9232 25.1787 -1.28171
25.5128 23.9762 -1.3932
26.3672 25.0789 -0.821808
26.4679 25.4022 -0.804474
25.4643 25.1029 -1.73966
25.4821 25.2359 -1.77764
25.6942 25.1803 -1.54158
25.3974 23.8518 -1.49882
25.4394 23.8658 -1.4553
25.4858 23.9167 -1.42833
25.5501 23.992 -1.40066
25.4826 25.083 -1.73162
25.4186 23.8868 -1.49418
25.3946 24.8027 -1.77783
25.5053 25.0674 -1.73835
25.4362 23.7931 -1.49641
25.9886 25.0943 -1.25814
25.5972 24.0457 -1.39967
25.6207 24.0717 -1.36326
26.0201 26.0871 -1.49911
25.7724 25.0708 -1.48717
25.8605 25.0662 -1.41139
25.4211 23.8811 -1.52715
25.4463 23.9662 -1.52877
26.0089 25.0604 -1.25078
25.536 23.9792 -1.4545
26.0208 26.1096 -1.52221
25.2495 23.6664 -1.65142
25.8034 25.0485 -1.49245
25.9354 25.0859 -1.34514
26.2013 24.9307 -1.02738
25.641 24.0867 -1.39199
25.793 24.282 -1.29734
26.0289 25.0427 -1.25885
25.5962 24.0246 -1.44159
25.6887 24.1074 -1.3447
26.1545 25.9875 -1.38786
25.2464 23.6925 -1.68941
25.5948 25.115 -1.72764
25.2484 23.745 -1.67598
25.2588 23.6667 -1.68321
25.4812 23.9472 -1.53623
25.6913 24.1238 -1.3967
26.1918 25.9355 -1.3881
26.4527 25.174 -0.880074
25.5937 24.0031 -1.44628
25.6153 24.956 -1.70583
25.2937 23.7351 -1.69992
25.7572 25.0166 -1.58667
25.8354 25.0413 -1.53649
26.0014 25.0005 -1.34472
26.1468 24.9885 -1.18136
25.6449 24.0793 -1.44857
26.1131 25.955 -1.4916
25.8097 24.2801 -1.33207
26.0842 24.9812 -1.25163
26.2125 25.9149 -1.39578
26.3007 25.8699 -1.29052
25.796 24.9876 -1.58847
26.2306 25.8881 -1.39449
25.4513 23.886 -1.60505
26.0241 24.9762 -1.34883
25.7445 24.1723 -1.38509
26.3239 25.8339 -1.28894
25.6691 24.9094 -1.70517
26.0483 24.9362 -1.34557
26.1213 24.9322 -1.24049
26.1958 24.9338 -1.18275
25.6316 24.0136 -1.48192
25.6904 24.1111 -1.41535
26.2543 25.8555 -1.3951
26.3453 25.8051 -1.29134
25.3049 23.7405 -1.74698
25.8455 24.2603 -1.33995
25.8912 24.9875 -1.53675
25.9831 24.953 -1.44394
26.1566 24.8925 -1.19723
26.1347 25.7632 -1.51617
26.2758 25.8274 -1.39693
26.3769 26.0318 -1.34759
25.7546 24.9562 -1.68158
25.4874 23.8976 -1.59606
26.0816 24.9007 -1.31358
25.5379 23.9216 -1.571
26.1441 24.8834 -1.23769
25.7793 24.1509 -1.39602
25.7942 24.2268 -1.39994
26.3072 25.7766 -1.39065
26.0135 24.481 -1.26703
25.308 23.7535 -1.79683
25.3814 23.7809 -1.71613
26.1702 24.8722 -1.23189
26.0302 24.4633 -1.26251
25.8476 24.9669 -1.63267
25.5368 23.8383 -1.58129
26.3193 24.8272 -1.07103
25.782 24.1612 -1.42879
25.8638 24.2655 -1.38788
25.3882 23.8757 -1.76635
26.0543 24.8469 -1.37551
25.7549 24.0964 -1.44744
25.8237 24.2177 -1.41554
25.4012 23.8674 -1.76169
26.0858 24.7876 -1.33465
25.5363 23.9334 -1.6429
25.906 24.3277 -1.37754
25.2965 23.7825 -1.85825
25.3994 23.8732 -1.78584
26.108 24.7581 -1.30423
25.7381 24.1269 -1.50132
26.2679 25.7503 -1.49356
25.9225 24.309 -1.36613
26.5353 25.8691 -1.24612
25.2722 23.7808 -1.89837
26.0984 24.5465 -1.27859
26.019 24.804 -1.44307
26.4553 25.6029 -1.2561
26.5682 25.7254 -1.17742
26.1311 24.7445 -1.31886
26.3093 24.7641 -1.13256
26.4868 25.5483 -1.24903
25.9794 24.353 -1.35262
25.4153 23.8678 -1.80475
25.7368 24.1436 -1.54743
26.3047 25.7069 -1.49925
26.3985 25.6504 -1.39217
25.9266 24.3264 -1.40374
26.014 24.4238 -1.35341
25.3394 23.7534 -1.86243
25.8974 24.2595 -1.42654
26.3644 24.8363 -1.14549
26.2424 25.7385 -1.63354
25.8929 24.2888 -1.47899
26.6332 25.5384 -1.1156
25.3507 23.7503 -1.88795
25.3997 23.7928 -1.83951
25.4347 23.8635 -1.84076
26.5145 25.5134 -1.254
26.1919 24.6332 -1.28064
26.4505 25.5943 -1.40735
25.9199 24.2523 -1.45201
26.5283 25.4979 -1.25807
25.9577 24.3266 -1.44851
26.6512 25.5152 -1.12007
25.5185 23.9043 -1.78336
26.3906 24.8063 -1.14691
25.735 24.0963 -1.60281
26.3674 25.616 -1.49235
25.9333 24.2633 -1.49638
26.5511 25.5012 -1.28981
25.4069 23.7923 -1.8847
26.2338 24.6128 -1.29924
25.5728 23.9545 -1.74365
26.264 24.6838 -1.27985
25.5433 23.944 -1.80059
25.8387 24.167 -1.55984
25.2973 23.787 -2.04377
25.4431 23.8701 -1.90126
25.686 24.039 -1.69492
26.3029 25.7238 -1.69826
26.109 24.4861 -1.39829
26.2048 24.5414 -1.31639
25.4361 23.879 -1.92617
26.314 24.7564 -1.28862
25.7847 24.1538 -1.65045
25.9005 24.2074 -1.53652
25.322 23.7749 -2.03295
25.5575 23.9562 -1.84257
25.7619 24.174 -1.6912
26.581 25.4891 -1.31701
26.6788 25.6512 -1.25642
26.0793 24.4119 -1.44278
26.3371 24.7453 -1.30781
26.3047 24.6824 -1.33913
25.5667 23.9724 -1.8576
26.4167 24.8755 -1.26511
26.1696 24.5179 -1.40138
26.2224 24.5534 -1.36357
26.3867 25.5531 -1.6326
25.9116 24.2167 -1.58604
25.5033 23.9364 -1.94395
25.5773 23.9527 -1.86451
26.3213 25.5038 -1.67572
25.8005 24.1512 -1.7073
26.3741 25.5876 -1.65157
26.7128 25.6176 -1.27226
26.2484 24.5458 -1.39292
26.2735 24.6106 -1.35742
26.3534 24.7453 -1.33168
25.6935 24.0869 -1.79926
25.8556 24.1974 -1.6405
26.6857 25.4047 -1.22435
25.3026 23.6955 -2.10546
25.4367 23.7978 -2.00124
25.6475 24.0399 -1.85187
26.5615 25.4462 -1.41383
26.7375 25.5914 -1.28233
25.6483 24.0345 -1.87763
26.5138 25.0779 -1.31017
26.8132 25.4716 -1.13879
25.3417 23.6972 -2.09978
26.0411 24.3173 -1.56767
26.6959 25.4792 -1.29673
26.8334 25.4076 -1.11784
25.4311 23.804 -2.0391
25.748 24.1339 -1.83971
26.5914 25.3963 -1.40639
26.7845 25.4059 -1.19953
26.8299 25.4413 -1.13726
26.2062 24.5379 -1.50251
26.3401 24.6657 -1.36917
25.5719 24.1088 -2.02958
25.6902 24.0927 -1.89661
25.9653 24.2995 -1.65214
26.3461 24.6655 -1.3778
26.4825 24.8156 -1.287
25.808 24.1751 -1.79593
25.8764 24.1982 -1.72548
26.6108 25.3682 -1.40539
26.2629 24.5617 -1.44134
26.0061 24.3401 -1.6463
26.1058 24.4383 -1.5759
25.3662 23.7659 -2.15667
26.2617 24.5782 -1.46566
25.7511 24.1378 -1.88911
25.8239 24.165 -1.80103
26.6471 25.2174 -1.31429
26.5025 24.8366 -1.33973
25.7914 24.1874 -1.85236
26.0097 24.256 -1.63504
26.6889 25.4049 -1.37978
26.7991 25.4878 -1.27868
25.1043 23.6137 -1.48394
25.8489 24.2433 -1.8157
25.9724 24.3347 -1.75024
26.462 24.7855 -1.37873
25.8849 24.2355 -1.84833
26.8059 25.5636 -1.34345
25.852 24.1958 -1.85332
25.8623 24.2402 -1.85479
26.6945 25.0891 -1.25785
26.8845 25.4594 -1.21419
26.343 24.6026 -1.45335
25.8253 24.1953 -1.89637
26.8983 25.489 -1.25113
26.5756 24.8627 -1.31701
26.6095 24.9789 -1.33545
25.9881 24.3315 -1.793
26.8085 25.2414 -1.24394
26.2033 24.4912 -1.60412
26.356 24.6513 -1.54651
25.8842 24.2477 -1.89027
25.9595 24.2746 -1.83425
26.0521 24.3944 -1.79749
26.2026 24.5467 -1.68512
26.6835 25.0318 -1.3361
26.5166 24.7639 -1.43036
25.9421 24.3216 -1.92032
26.3311 24.6017 -1.59123
26.3219 24.6338 -1.65108
26.159 24.5294 -1.81128
26.583 24.8347 -1.44993
26.7293 25.0449 -1.40813
26.1933 24.526 -1.83913
26.3741 24.7261 -1.6867
26.6981 24.975 -1.44905
26.039 24.4937 -1.99458
26.7077 24.997 -1.48426
26.6123 24.8844 -1.54853
26.4054 24.7218 -1.72898
26.8184 25.0834 -1.40963
26.2027 24.5297 -1.89002
26.3715 24.6364 -1.73536
26.729 24.9821 -1.49725
26.2722 24.5581 -1.84474
26.3144 24.6238 -1.82111
26.8356 25.105 -1.45077
26.4799 24.7498 -1.69892
26.597 24.8478 -1.64926
26.6997 24.924 -1.55269
26.8024 25.0166 -1.47502
26.8536 25.0664 -1.43853
26.3955 24.6665 -1.83727
26.4426 24.7304 -1.80368
26.505 24.8104 -1.80391
26.5996 24.8772 -1.68924
26.5505 24.8461 -1.75436
26.6181 24.8532 -1.68601
26.6632 24.9379 -1.68114
26.7826 24.9772 -1.5626
26.7833 25.0247 -1.61205
26.4147 24.9517 -2.08624
26.743 24.939 -1.62745
26.7977 24.9662 -1.57113
26.8026 25.0338 -1.64664
26.8567 25.1235 -1.64692
26.9079 25.1026 -1.53889
26.597 24.8567 -1.83639
26.6015 24.8825 -1.87696
26.7721 25.0212 -1.75577
26.7258 24.9642 -1.79823
26.7813 25.0023 -1.74771
26.7878 25.0383 -1.79529
26.9565 25.1912 -1.67847
27.0577 25.4138 -1.67794
27.1007 25.3431 -1.67251
27.2015 25.5938 -1.82388
27.2126 25.5461 -1.80125
26.9463 25.2772 -2.08008
27.1696 25.3094 -2.0437
24.6834 23.6472 -1.6469
24.9378 24.2069 -1.30076
24.4098 24.795 -1.39676
25.3966 23.9895 -1.85201
25.334 23.7541 -1.5605
24.9397 23.5387 -1.59877
24.9671 24.1583 -1.28956
26.1313 24.4561 -1.49574
25.0397 24.5753 -1.31687
24.5887 24.4878 -1.30603
24.6514 25.0117 -1.39766
25.3555 23.7431 -2.08704
25.3283 23.827 -1.71166
26.8605 25.1277 -2.10886
24.416 24.9176 -1.37111
24.5454 25.0283 -1.27113
24.3449 24.6001 -1.40751
24.457 24.867 -1.34798
24.5651 25.0075 -1.26864
24.6277 25.0924 -1.22715
24.3087 24.5121 -1.45394
24.4402 24.7504 -1.37836
24.3713 24.4493 -1.42192
24.4298 24.5061 -1.37738
24.416 24.6698 -1.42117
24.5973 24.5733 -1.28751
25.0453 25.1969 -0.966648
24.5433 24.5291 -1.35489
24.541 24.5404 -1.37215
24.5521 24.4268 -1.3911
24.1418 24.1457 -1.74077
25.1611 25.0181 -0.934467
25.5446 24.2534 -0.513893
25.2126 24.9387 -0.920528
25.5486 24.262 -0.52816
25.3248 25.4948 -0.89695
24.7041 24.9573 -1.39325
25.3371 25.2388 -0.866863
25.2567 24.8929 -0.932194
25.3626 25.0045 -0.853451
24.7524 24.4779 -1.34253
24.3037 23.9431 -1.70306
25.43 25.0749 -0.84441
25.327 24.6154 -0.891006
25.4681 24.9968 -0.825691
25.4795 24.9813 -0.826981
25.5176 24.1782 -0.663483
25.4395 24.7596 -0.88002
25.4878 24.8348 -0.861294
25.5025 24.8075 -0.855377
25.5417 24.8988 -0.836239
24.3637 23.7998 -1.76289
25.4797 24.6924 -0.867435
25.5627 24.859 -0.828888
25.4815 24.7043 -0.881767
25.5244 24.7768 -0.855736
24.9782 24.3723 -1.3059
24.3957 23.781 -1.76281
25.5503 24.7151 -0.832424
24.8611 25.2863 -1.6306
24.9267 25.3561 -1.59011
24.8865 25.2798 -1.6578
24.4485 23.7404 -1.73135
25.477 24.117 -0.81427
25.5252 24.6452 -0.881802
25.6079 24.8087 -0.844185
25.0058 25.4248 -1.56557
25.5885 24.6674 -0.838551
24.9298 25.4214 -1.67541
25.0802 24.7256 -1.39436
24.9864 25.3283 -1.64574
24.5581 23.649 -1.65632
25.0449 25.4422 -1.63573
25.112 24.5157 -1.33512
24.6286 23.6905 -1.61705
25.1676 25.5781 -1.53307
25.1124 24.5319 -1.3502
25.4487 24.1183 -0.923855
24.5876 23.6438 -1.69193
25.1121 25.5349 -1.59875
25.1257 24.6759 -1.39075
25.6135 24.5133 -0.869804
25.7353 24.7387 -0.804962
25.1496 24.6454 -1.38274
24.9995 25.366 -1.70337
25.1902 25.5957 -1.58147
25.1381 25.5103 -1.62998
25.0448 25.2933 -1.67618
25.4966 24.242 -1.00045
25.3621 24.1228 -1.12292
24.9371 23.6288 -1.44596
24.7067 23.5626 -1.65606
25.013 23.6354 -1.36388
25.0496 23.6935 -1.36069
25.2982 24.0089 -1.19295
25.2467 23.8953 -1.24761
25.6136 24.3376 -0.977482
24.9902 23.6093 -1.45582
24.9379 23.5513 -1.49709
25.6306 24.3047 -0.964279
25.2186 23.9227 -1.2858
25.2534 23.8903 -1.28182
25.3053 23.9048 -1.20509
25.1474 23.7168 -1.3586
25.1819 23.7744 -1.32823
24.6972 23.4976 -1.74307
24.9981 23.599 -1.49284
25.6158 25.4064 -1.3761
25.246 23.8111 -1.30851
25.491 24.4306 -1.22913
25.275 25.4712 -1.7713
25.7153 25.3703 -1.29599
25.1628 23.7135 -1.37342
25.5095 24.4126 -1.23291
25.5796 25.3626 -1.47196
25.6641 25.3303 -1.37166
25.7384 25.347 -1.30614
24.9886 23.5406 -1.54743
25.1742 23.7088 -1.38359
25.3087 23.8535 -1.29728
25.5374 24.3973 -1.25367
25.3342 25.4237 -1.79867
24.9938 23.5912 -1.543
25.1263 23.6774 -1.44776
24.8904 23.4563 -1.65472
25.5206 25.3719 -1.5917
25.1694 23.7258 -1.41441
25.2617 23.8149 -1.34602
25.4784 24.0605 -1.20673
24.9121 23.5254 -1.63955
25.0342 23.5772 -1.51078
25.5395 25.3427 -1.5879
25.136 23.6679 -1.44264
25.644 25.2204 -1.42428
25.7584 25.8364 -1.53452
25.1868 23.7263 -1.44197
25.4951 24.0636 -1.23701
24.9464 23.5043 -1.65148
25.0118 23.5179 -1.55014
25.9536 25.1516 -1.10043
25.5853 25.2396 -1.54688
25.1521 23.6779 -1.49261
25.6747 25.2 -1.44498
25.3191 23.8703 -1.35425
25.4297 23.9446 -1.29419
24.9042 23.4483 -1.68926
25.5512 24.424 -1.30668
25.989 25.0761 -1.09
25.4829 24.0783 -1.25576
25.5797 24.3583 -1.26544
25.1055 23.64 -1.54792
25.1602 23.6638 -1.47902
26.0033 25.0487 -1.08791
24.9519 23.4937 -1.6887
25.2609 23.7628 -1.44476
25.8046 25.8228 -1.5803
25.4939 23.9541 -1.23628
25.0738 23.5715 -1.56539
25.5375 25.2546 -1.68808
25.1862 23.639 -1.46679
25.2574 23.7791 -1.44884
25.077 23.5824 -1.59592
25.1292 23.6225 -1.55836
25.2169 23.7138 -1.47474
25.5446 23.8733 -1.18742
24.9017 23.4514 -1.74125
25.0429 23.5341 -1.64249
25.5974 25.1429 -1.65179
25.2052 23.744 -1.48915
25.5593 23.8547 -1.1852
25.0535 23.5869 -1.62785
25.2424 23.705 -1.49825
25.9538 25.1446 -1.25021
26.0249 25.0382 -1.10658
25.5142 25.1473 -1.73706
25.6584 25.188 -1.5919
25.7217 25.2399 -1.54168
26.0492 24.9864 -1.09921
25.9652 25.1057 -1.23456
25.4965 24.79 -1.68102
25.6728 25.1927 -1.61514
25.389 23.8523 -1.40715
25.7913 25.0514 -1.45838
25.309 23.7403 -1.4832
25.4443 24.0097 -1.42838
25.0971 23.5974 -1.69872
25.1617 23.6083 -1.58641
25.2509 23.7118 -1.53491
25.0445 23.5581 -1.74789
25.0659 23.6291 -1.71833
25.6226 25.1772 -1.72046
25.147 23.6535 -1.65969
25.699 25.1763 -1.63317
25.2093 23.6756 -1.5888
25.7189 25.1224 -1.60664
