3.27922 -4.19797 -1.29153
3.28581 -3.19968 -1.99623
5.33142 -2.59689 -1.7177
3.51454 -2.965 -2.03366
3.2653 -3.31021 -1.70037
5.00813 -1.89166 -2.14513
3.99251 -2.60715 -2.04679
3.09856 -3.70047 -1.34003
5.44269 -1.86005 -1.98343
3.02957 -3.4053 -2.38716
4.10251 -2.61459 -1.75857
4.10962 -4.0101 -1.99643
2.81158 -3.66119 -1.69797
3.94374 -2.67926 -1.857
5.6273 -2.31143 -1.81451
3.73497 -2.98306 -1.63685
5.53949 -2.5181 -1.75466
4.26161 -2.44955 -1.93793
4.14507 -2.54578 -2.19902
4.62137 -2.23978 -1.79377
3.90543 -2.73761 -2.1402
3.3956 -3.08023 -2.00857
4.57442 -2.35098 -1.64624
3.20573 -4.80164 -2.07452
3.98251 -3.14624 -1.47971
5.20822 -1.76825 -2.23441
3.84898 -2.79895 -2.28917
3.23875 -3.8923 -1.24899
5.0899 -1.89273 -1.88605
4.67331 -2.15942 -2.19764
5.50005 -2.47046 -1.74795
2.66821 -4.10165 -2.06944
2.76064 -3.67651 -1.81111
3.6068 -2.91492 -1.97464
3.73242 -2.85403 -1.94792
3.63998 -2.99332 -2.31341
2.86452 -3.83154 -1.43053
3.13211 -4.72156 -2.28687
3.73593 -2.89102 -2.29514
3.48828 -3.04535 -1.94216
4.61374 -2.32657 -1.61015
4.34059 -2.98648 -1.22538
2.68974 -3.90491 -1.7949
3.84886 -2.97061 -1.57582
3.57689 -3.1705 -1.55839
4.58873 -3.29514 -1.24277
5.4763 -2.02908 -1.99238
5.47215 -2.87225 -1.7293
3.16905 -3.57883 -2.15631
4.84869 -1.95303 -2.5428
4.2979 -2.56006 -1.63981
3.19475 -3.70605 -1.2626
4.34894 -2.69489 -1.34448
2.91441 -3.47122 -2.2002
4.39883 -2.54547 -2.41385
4.5271 -4.00775 -1.94918
2.99144 -3.79718 -1.34818
5.69849 -1.96713 -2.19012
4.12891 -2.64865 -1.6921
4.18814 -2.50104 -2.20086
3.20235 -4.81656 -2.06698
3.42909 -3.14621 -2.28696
4.35973 -2.65695 -1.39221
5.13036 -2.15735 -1.71017
5.43233 -2.02106 -1.80115
2.6461 -3.71176 -2.14565
2.9601 -3.535 -2.04322
5.85765 -2.78546 -1.83714
3.4505 -4.20078 -1.29758
4.04005 -3.34738 -1.59744
3.70634 -2.91367 -1.75008
3.79778 -2.93439 -1.63015
5.39774 -1.97098 -1.80451
3.65312 -3.45401 -1.19238
5.65324 -2.66275 -1.77349
2.9106 -4.49527 -2.08241
2.88979 -4.24945 -1.73646
4.39305 -3.76166 -1.2514
2.8757 -3.54575 -1.84349
4.79102 -2.00214 -2.25004
3.40041 -3.55652 -1.23581
3.43945 -3.09299 -2.19509
3.12761 -3.46393 -2.15038
4.55815 -2.25043 -1.84568
3.15771 -3.60776 -1.37661
5.92497 -2.42865 -1.97112
3.00584 -3.40787 -2.3529
2.59146 -3.85223 -2.15326
3.07027 -4.06067 -1.33771
5.62645 -2.44241 -1.7817
3.58101 -4.16302 -1.25979
5.21043 -2.00241 -2.31692
3.48901 -3.92105 -1.24329
3.05679 -3.66849 -1.40866
4.463 -2.31717 -1.88247
3.20015 -3.30649 -1.79556
4.35564 -3.66168 -1.22348
3.5571 -2.97238 -2.17754
3.69382 -3.29803 -1.28751
3.46042 -3.24881 -1.54787
5.65308 -2.832 -1.76493
4.10178 -3.39484 -1.19028
3.50665 -3.21478 -1.54976
3.54466 -3.00598 -1.90442
3.75481 -3.21219 -1.26253
2.80144 -3.70999 -2.10388
3.687 -3.50735 -1.1929
5.39618 -1.92346 -1.81228
4.23068 -2.4899 -2.24345
5.73697 -2.85403 -1.78215
2.85036 -3.54855 -2.14246
5.38844 -2.92188 -1.69794
5.00417 -2.3653 -1.65919
2.60735 -3.7973 -2.09528
3.79701 -2.80594 -2.14614
3.77504 -2.89749 -1.73801
3.36107 -3.13809 -1.99645
2.95677 -3.51343 -1.74815
3.76672 -2.86832 -2.28493
3.10359 -3.65353 -1.38992
3.28819 -3.30118 -1.69195
5.64789 -2.54532 -1.77757
5.1519 -1.94998 -1.79053
4.28914 -2.45569 -2.25323
3.48224 -3.78577 -1.21386
3.65842 -2.96341 -1.75628
5.84064 -2.28445 -1.97169
4.83945 -2.15714 -1.69296
5.27754 -2.42059 -1.69194
4.37892 -2.36285 -2.10998
2.84833 -3.59335 -1.79684
4.5425 -2.33923 -1.73659
4.34859 -3.08795 -1.21005
3.21725 -3.69507 -1.57299
3.89909 -2.76279 -2.28989
4.20128 -3.34167 -1.19855
2.98628 -4.40005 -1.75035
4.18716 -3.86514 -1.22566
2.83368 -3.59253 -2.44608
2.97166 -3.44 -2.26512
3.89122 -4.43262 -1.77961
3.60915 -4.35794 -1.28993
3.00145 -3.65787 -1.48812
3.04294 -3.43552 -2.12086
4.12086 -3.00476 -1.21815
3.33064 -3.44324 -1.39017
4.94563 -2.60501 -1.60519
4.83189 -2.28549 -2.49051
3.50388 -4.25198 -1.64438
4.59607 -2.19696 -2.09172
3.75511 -2.95132 -2.35042
4.24959 -3.6532 -1.63047
5.29778 -1.87375 -1.81473
4.03285 -3.08862 -1.428
2.92841 -4.4729 -2.03857
4.97536 -3.80804 -1.87054
2.89218 -3.46515 -2.49985
3.02048 -3.6358 -1.51205
5.26077 -2.16257 -1.72659
4.98129 -2.10477 -1.69709
4.40488 -2.41293 -1.64887
4.39574 -4.19199 -1.84698
2.91109 -3.66568 -1.59531
5.12062 -3.63818 -1.88537
4.35115 -2.36264 -2.08413
4.74263 -2.23953 -1.6449
4.57686 -3.37906 -1.24554
4.35893 -2.39066 -1.89745
4.0901 -2.74179 -1.64548
5.57341 -2.05441 -1.85987
5.14159 -2.25912 -1.6984
5.99989 -2.57925 -1.94944
2.79953 -3.76163 -1.5924
3.64391 -2.95758 -2.29001
3.7415 -2.87457 -2.25695
4.32681 -2.44754 -1.78896
3.03615 -4.39911 -1.66868
3.1678 -3.42667 -1.55969
4.71509 -2.05087 -2.47409
2.9856 -3.45587 -2.14548
3.49295 -4.10928 -1.26015
4.27898 -3.3931 -1.20495
3.10564 -3.41843 -1.71601
5.93452 -2.28336 -2.20971
5.87892 -2.29327 -2.02535
5.77127 -2.96384 -1.79452
4.91019 -2.54691 -1.63419
5.44943 -2.41022 -1.74226
4.75356 -2.04172 -2.43801
3.63678 -3.08536 -1.65307
3.00635 -3.40021 -2.39996
3.51395 -3.82013 -1.22704
5.59311 -2.94901 -1.7547
3.14482 -3.80435 -1.26616
4.34608 -2.94055 -1.23036
4.70657 -2.2226 -1.7048
4.28905 -3.6604 -1.21349
3.99574 -2.74124 -1.65636
4.515 -2.25653 -1.93069
3.23439 -3.61148 -1.34378
3.02184 -3.44205 -2.23315
4.26544 -2.2735 -1.54525
3.02144 -4.51468 -1.92878
3.87955 -2.88229 -2.36982
3.55409 -3.01321 -2.2025
2.67429 -3.75479 -1.85732
4.85751 -3.65311 -2.09385
5.19707 -2.69626 -1.69381
5.68694 -2.18661 -1.87804
4.36526 -2.42349 -1.76001
3.44409 -3.26749 -1.50359
2.75587 -4.24393 -2.1982
3.65552 -3.71692 -1.19457
4.57404 -2.24326 -2.03035
3.60143 -2.94922 -2.0945
3.60732 -3.28485 -1.25906
3.92183 -3.09799 -1.28233
2.70633 -3.7608 -1.75185
3.53557 -3.36139 -1.27597
3.28609 -3.35458 -1.59044
4.50031 -2.35825 -1.64886
5.71341 -2.10184 -1.99547
4.98654 -1.86533 -2.1972
3.1947 -3.26913 -2.04211
4.65372 -2.1524 -2.2439
3.88664 -2.80954 -1.65769
5.25725 -2.09543 -2.11024
4.63176 -2.1893 -1.88195
4.89302 -2.44629 -1.63616
4.99763 -1.85458 -2.29151
4.99628 -2.69321 -1.62895
5.0963 -1.96106 -1.7965
4.93729 -1.89914 -2.4526
3.40657 -3.90637 -1.60321
3.19301 -3.49426 -2.31929
3.24889 -3.35394 -2.34784
4.29179 -2.59967 -1.5952
4.22559 -2.4819 -2.02128
3.13113 -3.9108 -1.26765
4.43279 -3.74088 -1.23555
2.71199 -3.69003 -2.47898
5.45171 -3.19748 -1.72368
3.53452 -3.12576 -2.34113
5.80621 -2.27768 -1.90936
2.80511 -3.59756 -2.08267
3.15228 -4.72726 -2.02834
5.39922 -2.492 -1.72308
4.20944 -3.6185 -1.22534
4.30615 -3.77591 -1.5545
2.99599 -3.61636 -1.55355
2.78181 -3.59906 -2.24575
5.1622 -1.99759 -1.75648
3.67809 -3.80499 -1.20766
4.02666 -2.70935 -1.70915
2.84958 -4.39987 -2.12727
4.36269 -2.36652 -1.88021
4.05399 -2.61664 -2.22138
4.8654 -1.97797 -1.88493
4.24681 -3.32013 -1.20579
4.93967 -1.87561 -2.31755
4.73592 -2.23904 -2.45772
3.91417 -2.72183 -1.89256
4.04167 -3.04306 -1.23106
4.34387 -2.40524 -1.83923
3.88588 -3.56741 -1.20036
2.66516 -3.84177 -1.84632
4.14879 -4.40259 -1.853
3.78288 -3.74963 -1.2224
5.54631 -2.65558 -1.74862
4.99283 -2.05215 -1.71318
3.83098 -2.80521 -1.80545
3.57822 -4.10599 -1.24158
3.72672 -4.20648 -1.26038
4.20412 -2.46179 -2.07864
3.2397 -3.23007 -1.86286
5.75139 -2.45935 -1.82884
3.97752 -2.6879 -2.25
4.96199 -3.74249 -1.88902
4.1465 -4.40372 -1.89322
5.43114 -1.91464 -1.91664
3.43697 -3.46384 -1.25436
4.84097 -1.99591 -1.8911
4.67892 -2.15192 -2.14628
4.25206 -2.46002 -2.19476
2.85158 -4.25565 -1.78293
3.88686 -3.11591 -1.27539
3.07748 -3.36563 -2.25145
4.79686 -2.06305 -2.16306
4.26881 -2.27396 -1.58543
5.09753 -1.81998 -2.10314
5.49117 -1.95364 -1.99331
5.20503 -2.13821 -2.18326
4.43956 -2.5119 -1.49523
4.98848 -2.65854 -1.61011
2.62563 -3.81229 -2.25626
2.84703 -4.29849 -1.9788
2.97084 -3.45804 -2.36488
3.30336 -3.18896 -1.87491
3.1832 -3.39603 -1.68794
5.76215 -2.04736 -2.13509
5.10713 -1.81808 -2.13922
3.07082 -4.56842 -1.92247
4.58168 -3.43893 -1.24521
5.11443 -3.70297 -1.81145
4.34111 -2.51547 -2.36727
3.96254 -2.64322 -2.04285
5.28549 -1.79654 -1.98949
4.27893 -2.44302 -1.94456
2.7049 -4.00729 -1.81434
4.89754 -3.82947 -1.93694
3.95889 -2.67303 -1.88788
3.0255 -3.59479 -1.54951
3.04823 -3.75583 -1.30023
4.567 -2.36981 -1.63306
4.81023 -2.05515 -2.01139
5.01123 -1.88068 -1.97742
4.64795 -2.16235 -1.89872
3.2766 -3.21036 -2.04353
3.36807 -4.08356 -1.27489
5.23094 -2.16385 -1.71648
3.67513 -3.44711 -1.20068
3.50089 -3.034 -2.07797
2.7346 -3.85297 -1.69915
3.79706 -3.11624 -1.35491
4.77509 -2.07373 -1.85652
3.24141 -3.4122 -1.54819
3.2066 -3.55435 -2.13544
2.94792 -3.57944 -2.20486
3.11465 -3.44684 -2.13768
2.74104 -3.97488 -1.7032
4.11073 -2.66415 -1.65354
5.23773 -2.71054 -1.67976
3.04143 -3.49579 -1.72294
3.90683 -2.76242 -1.74806
3.38681 -4.64441 -1.52449
5.25143 -2.36395 -1.69999
3.04889 -3.49777 -2.07438
3.43663 -3.46143 -1.2887
3.34703 -3.41064 -2.41996
2.88258 -3.84933 -1.43805
4.30441 -2.40967 -1.94526
4.18929 -2.71011 -1.58451
5.10246 -3.64102 -1.88264
4.07729 -2.58932 -2.02349
5.09264 -2.45755 -1.67589
3.08429 -4.67004 -2.03204
3.72185 -3.10938 -1.49819
2.99568 -3.71835 -1.40833
2.70476 -3.64487 -2.43496
5.18645 -2.08173 -1.70919
3.73033 -3.29648 -1.32756
2.67674 -3.68936 -2.03389
4.69432 -2.10855 -2.29472
5.33615 -1.85519 -1.87447
3.24066 -3.69794 -1.25889
4.17972 -2.67328 -1.59755
3.30869 -3.21277 -2.27951
4.90556 -2.00919 -2.01347
3.34528 -3.15408 -1.94781
4.41164 -2.32019 -2.0579
2.62482 -3.97861 -2.13785
3.45967 -3.76483 -1.22126
5.7476 -2.241 -1.88847
2.95341 -3.74033 -1.42651
4.04448 -2.6149 -2.1473
2.93796 -3.61087 -1.65265
4.74239 -2.06259 -2.4016
3.88271 -2.74127 -1.95375
2.72867 -3.75735 -2.42632
4.0015 -2.5766 -2.05244
3.13957 -3.46381 -2.17555
4.74042 -2.22018 -1.66009
3.33577 -4.7356 -1.7448
4.84494 -2.25702 -1.64932
4.74893 -2.05103 -2.18874
2.83688 -3.88345 -1.48422
3.44942 -3.70135 -1.22726
5.24818 -2.10928 -1.7379
4.6937 -2.34979 -2.25105
3.25116 -3.37152 -1.60101
2.99625 -4.56461 -2.03576
4.69966 -2.30072 -1.64441
4.04417 -3.79099 -1.2134
5.03931 -1.87106 -1.99828
5.83806 -2.20987 -2.02814
5.06885 -1.85019 -2.09019
5.06277 -1.88516 -2.43908
2.86198 -3.50577 -1.89678
4.27167 -2.47791 -1.81833
3.22903 -3.42435 -1.51598
4.99635 -3.74179 -1.92642
3.49966 -3.84509 -1.21655
4.55962 -2.39774 -1.59119
3.20827 -3.2695 -2.1427
5.00694 -3.75894 -1.89431
2.99739 -3.39606 -2.49251
3.85455 -2.76727 -1.89571
5.56667 -2.22955 -1.81744
2.69307 -3.70844 -2.35363
5.81068 -2.13614 -2.35608
3.84169 -3.74997 -1.20821
4.13234 -2.58194 -1.79023
4.35625 -2.32098 -2.05626
4.73666 -2.09756 -2.13847
4.72086 -2.36923 -2.31041
3.94492 -3.66605 -1.20029
5.11476 -1.86508 -2.25105
4.35655 -2.32086 -2.09713
2.80215 -3.51804 -2.34479
3.04378 -3.35794 -2.34273
5.85619 -2.61081 -1.85477
3.79384 -3.39835 -1.19646
4.66133 -2.20297 -2.37857
2.70357 -3.62589 -2.44913
5.66884 -2.08255 -1.92388
4.35677 -2.82657 -1.30676
2.80511 -3.73605 -1.67393
2.87917 -3.54617 -2.13224
3.28064 -4.12048 -1.26377
5.40063 -2.63742 -1.71336
5.28523 -1.78677 -2.30483
2.75787 -4.24103 -2.05555
4.01669 -2.76434 -2.37258
3.3744 -3.37814 -1.55329
2.60104 -3.85516 -1.96711
5.38191 -2.60587 -1.71783
4.86217 -1.92822 -2.40829
3.38554 -3.29514 -1.60033
5.45552 -2.65985 -1.72212
2.97673 -3.48337 -1.78806
4.4296 -2.34671 -2.29609
4.59854 -2.20721 -2.15144
4.04794 -3.14099 -1.5868
3.23042 -3.24438 -2.09357
5.44829 -2.46585 -1.74113
4.47066 -3.09753 -1.22815
2.89072 -3.89401 -1.44654
4.02451 -2.69391 -1.74186
2.70912 -4.05081 -1.84815
5.18163 -2.00272 -2.24216
4.54503 -2.4989 -1.5133
5.56305 -2.41965 -1.77842
3.68599 -2.86816 -2.15215
4.75386 -2.05859 -2.09591
3.70122 -2.90738 -2.28815
4.26363 -2.79413 -1.32715
3.86081 -3.54669 -1.19955
3.85118 -2.79471 -1.84942
3.4576 -3.07312 -1.85057
3.1356 -3.33926 -1.84949
3.08911 -3.81458 -1.28616
3.18983 -3.65268 -1.56392
3.16246 -3.74936 -1.25562
4.17241 -2.53735 -2.26313
4.8008 -2.15146 -1.7395
3.36214 -3.50284 -1.28762
4.38576 -2.34891 -1.55612
3.70354 -2.88907 -2.19948
2.62888 -4.00925 -2.11167
5.67572 -1.93097 -2.15785
5.12552 -2.12634 -1.72018
5.01036 -1.82675 -2.25776
3.79507 -3.16528 -1.30491
2.66594 -3.81003 -1.86301
2.83208 -3.70963 -1.65481
3.05798 -3.41269 -1.8016
4.81201 -2.23209 -1.65171
3.26779 -3.2901 -1.72455
4.66682 -2.12854 -1.88414
2.9882 -3.44254 -2.29364
2.99292 -3.41428 -2.19413
4.40785 -2.50095 -1.50786
5.90213 -2.21124 -2.15277
2.90704 -3.62958 -1.66223
3.61722 -4.02158 -1.25452
5.28841 -1.75098 -2.1507
2.84111 -3.51196 -2.54087
3.36287 -3.6922 -1.23191
4.34958 -2.37433 -2.19047
3.52586 -3.15076 -1.64769
4.61281 -2.17798 -2.00728
5.58057 -3.10217 -1.74657
4.39728 -2.55234 -1.55811
3.38283 -3.1235 -1.94948
6.10956 -2.56641 -2.12709
3.33389 -3.52762 -2.30659
3.01036 -3.62265 -1.50597
4.33627 -3.24475 -1.21056
2.98811 -3.74756 -1.39027
5.62628 -3.11594 -1.75543
2.75507 -3.84991 -1.65284
2.93622 -3.48383 -1.88041
3.20378 -3.28394 -1.88279
4.26013 -3.10696 -1.20215
3.69388 -3.90091 -1.21279
5.20924 -2.44846 -1.69291
3.77739 -2.99515 -1.54121
3.15578 -3.30728 -2.03131
4.93507 -1.94528 -2.04337
4.26898 -3.63385 -1.21769
3.19443 -3.36703 -1.65848
4.40475 -2.35159 -1.89426
4.62357 -3.59216 -1.23957
2.75481 -3.75452 -2.13849
3.25949 -3.69623 -1.27245
3.85849 -3.25684 -1.18528
2.92372 -3.42041 -2.35918
5.02562 -1.87372 -2.19042
3.86433 -2.76352 -1.80164
3.35876 -3.48776 -1.3959
5.36761 -3.24454 -1.6512
4.15099 -3.74841 -1.21046
3.43082 -3.0896 -2.09684
3.75618 -3.16733 -1.35275
4.33861 -2.71756 -1.31168
3.76833 -3.02499 -1.49934
3.80595 -2.9205 -1.65659
5.02217 -1.88696 -2.00261
2.80037 -4.10837 -1.72511
2.99503 -4.27158 -1.66114
5.24806 -1.74454 -2.04788
2.59901 -3.79306 -1.95266
4.82652 -2.21014 -1.68004
2.72997 -3.64401 -2.18162
2.99542 -3.53821 -1.67508
4.01614 -2.88751 -1.66685
3.75046 -2.81732 -2.19529
4.29337 -3.75745 -1.23396
4.11537 -2.68707 -2.37967
4.54726 -3.3584 -1.23954
5.92477 -2.24347 -2.18391
4.38571 -2.38113 -1.82797
3.12875 -3.33627 -1.95261
2.62529 -4.01437 -2.04791
3.82611 -3.16824 -1.21461
4.50273 -2.56287 -1.46778
4.55122 -3.8558 -1.9404
2.7776 -3.6644 -2.10548
4.45277 -2.30765 -2.14571
2.66019 -3.69839 -1.99166
5.24922 -2.78558 -1.71411
5.0965 -2.30722 -1.69725
3.84288 -2.79825 -2.24078
4.8083 -2.10751 -2.02806
3.80283 -3.65741 -1.19599
4.0972 -4.44321 -1.83554
2.67628 -3.79968 -1.84543
2.7843 -4.21561 -2.00199
4.01695 -2.71555 -1.688
2.95396 -3.81631 -1.34689
4.77916 -2.29395 -2.11774
2.94882 -4.5192 -2.0419
2.92557 -3.54138 -1.95592
4.48746 -2.3595 -1.75343
3.24879 -4.66013 -1.72615
2.82784 -4.34933 -2.02997
3.10994 -3.3786 -2.39715
2.68732 -3.68359 -2.27995
4.9586 -2.0593 -2.02315
3.62231 -3.94214 -1.22613
4.47354 -2.54517 -1.57803
4.18732 -2.94586 -1.23499
3.18896 -4.05746 -1.28443
3.18451 -3.5177 -2.08272
3.64806 -3.30307 -1.2591
3.59299 -3.36392 -1.2835
4.61247 -2.34399 -2.41121
3.72357 -3.09262 -1.54193
2.96021 -3.42419 -2.28877
4.76517 -2.08035 -1.83441
3.94368 -3.20047 -1.19504
3.98117 -3.75052 -1.2029
3.27477 -3.20612 -1.95893
4.77229 -1.99329 -2.29063
3.74425 -3.3533 -1.19137
3.41464 -3.21957 -1.65652
4.54277 -2.25275 -2.20404
4.21468 -2.4791 -1.77165
3.21661 -3.90741 -1.25183
3.83937 -3.2955 -1.21076
4.63078 -2.26126 -1.69891
4.90785 -1.95987 -2.0605
5.80815 -2.22012 -1.93778
4.94063 -2.08728 -1.73437
3.23488 -3.40851 -2.25226
4.86266 -1.9682 -2.10003
3.50575 -3.76666 -1.21961
3.74614 -3.71594 -1.21033
2.76271 -3.60995 -2.27968
4.18124 -4.396 -1.89999
2.7666 -3.62125 -1.91386
3.01506 -3.42844 -1.80827
4.36165 -2.63712 -1.42473
3.84514 -2.76343 -1.94682
3.90146 -2.87872 -2.38381
4.39684 -2.96432 -1.23415
4.13782 -2.67026 -2.37317
3.39616 -3.65338 -1.23154
4.3837 -2.32205 -2.19102
3.90047 -2.75278 -2.24541
4.00307 -3.01913 -1.67696
5.63292 -1.94058 -2.05354
4.84987 -2.01349 -1.85224
3.63916 -3.75638 -1.20882
2.79527 -4.2966 -2.04927
3.35576 -3.52121 -1.25259
3.74156 -4.23026 -1.80333
2.96269 -3.69949 -1.47733
2.87045 -3.48267 -2.37747
2.74112 -3.80286 -1.68995
4.49423 -2.31039 -1.80396
5.03735 -1.82578 -2.29104
4.45303 -2.36285 -1.68513
4.04964 -3.62921 -1.19986
3.73969 -2.84988 -2.1442
3.09714 -3.44916 -1.69781
5.35194 -2.34598 -1.72755
2.75684 -3.82736 -1.66542
5.01495 -3.7171 -1.90599
2.7672 -3.61249 -2.53998
3.88626 -2.73795 -2.09482
4.09175 -2.99316 -1.73052
3.49583 -3.55093 -1.22669
4.09967 -3.37112 -1.19144
5.03769 -1.85599 -1.95164
3.07938 -3.74249 -1.29502
5.88647 -2.16544 -2.13226
5.91054 -2.26462 -2.15825
6.07358 -2.52655 -2.05967
6.05861 -2.52933 -2.02521
6.05052 -2.52753 -2.00787
2.89891 -4.35175 -1.97592
5.81102 -2.30814 -1.90565
6.02965 -2.57199 -1.9473
6.02644 -2.60019 -1.93125
5.83603 -2.47623 -1.92506
6.02676 -2.65018 -1.91613
3.33066 -3.46246 -1.35326
5.81583 -2.84766 -1.80535
4.48283 -2.3887 -1.73466
3.70363 -2.98917 -1.67739
4.77464 -2.05801 -2.40625
3.89238 -3.16635 -1.21329
4.04057 -2.63568 -1.82309
4.28917 -2.4368 -1.88272
4.1373 -2.54645 -2.14185
2.7916 -3.54483 -2.28564
3.42944 -3.14359 -1.73808
5.03127 -2.54544 -1.66124
3.28761 -3.24924 -1.74709
5.1064 -2.49979 -1.67667
4.08742 -3.5206 -1.20719
2.9572 -3.51184 -2.17061
3.64149 -3.01993 -2.34283
4.5452 -2.4151 -1.54634
4.96977 -1.88669 -2.24849
3.59955 -2.95038 -1.94732
4.95052 -1.87445 -2.46956
3.44176 -3.09967 -1.79761
4.242 -2.5433 -1.73218
3.44382 -3.85016 -1.70651
3.52148 -4.27725 -1.66862
2.7986 -4.19144 -1.79938
4.1008 -2.5947 -1.79043
3.368 -4.0112 -1.265
2.68916 -3.70667 -2.20106
3.63263 -3.0918 -2.37987
5.62709 -2.42444 -1.79168
5.02161 -1.90729 -2.09815
5.48637 -1.9375 -2.43018
5.26616 -1.76923 -2.33074
5.59128 -1.90848 -2.33107
5.39064 -1.75745 -2.25216
5.34868 -1.75644 -2.23611
5.53287 -1.8219 -2.23505
5.52162 -1.81189 -2.21294
5.51343 -1.80795 -2.19509
5.1138 -1.8121 -2.25529
5.23033 -1.77139 -2.21127
5.50014 -1.79306 -2.15157
5.34239 -1.74924 -2.1473
5.76244 -2.08875 -2.26978
5.47366 -1.76425 -2.12199
5.32378 -1.72821 -2.1231
5.1946 -1.7923 -2.15092
5.30814 -1.72202 -2.08717
5.19698 -1.77158 -2.13744
5.63649 -1.87805 -2.09671
5.44016 -1.76312 -2.0423
5.63408 -1.89682 -2.08056
5.95721 -2.2778 -2.23582
5.29738 -1.74887 -2.04282
5.43459 -1.8132 -1.99761
5.28639 -1.7627 -2.01442
5.60176 -1.91208 -1.99823
5.13753 -1.80893 -2.0368
5.83481 -2.15924 -2.04898
5.59674 -1.93301 -1.97546
5.15349 -1.81363 -1.99109
5.45268 -1.89865 -1.98433
5.28873 -1.86029 -1.96041
5.56261 -1.92007 -1.90594
5.86339 -2.28336 -2.02573
5.56026 -1.94727 -1.88643
5.40042 -1.86835 -1.87852
5.56914 -1.99228 -1.88262
5.24371 -1.85077 -1.88692
5.00967 -1.92117 -1.9819
5.13687 -1.85806 -1.89759
5.56808 -2.01553 -1.86823
5.24249 -1.86603 -1.85271
5.39117 -1.90674 -1.83893
5.35948 -1.91449 -1.8052
5.58105 -2.1055 -1.85057
5.23959 -1.89053 -1.83044
5.23245 -1.91513 -1.80487
5.34645 -1.95404 -1.78387
5.38675 -2.0047 -1.79185
5.58733 -2.19974 -1.81684
5.24303 -1.95404 -1.78678
5.59201 -2.25046 -1.81196
5.40125 -2.12186 -1.78066
4.9771 -2.04053 -1.84186
5.09737 -1.96536 -1.75589
5.6037 -2.35434 -1.79889
3.52245 -3.0354 -2.24227
5.40846 -2.2045 -1.75974
4.95839 -2.0386 -1.79855
5.88577 -2.71774 -1.8446
5.06569 -2.00629 -1.74575
5.42267 -2.27042 -1.7615
5.8972 -2.75687 -1.84206
5.42445 -2.30804 -1.74221
4.4904 -2.37418 -1.61795
4.94337 -2.05875 -1.74687
5.22655 -2.12418 -1.7168
5.43307 -2.37592 -1.73821
5.0463 -2.11075 -1.70328
5.69051 -2.74179 -1.78613
5.0959 -2.16211 -1.71009
5.25285 -2.30298 -1.71119
5.08644 -2.2438 -1.6958
5.46825 -2.5722 -1.72968
5.24814 -2.40982 -1.70442
5.73918 -2.9086 -1.78656
5.74774 -2.97122 -1.78586
5.09299 -2.34634 -1.68562
5.29276 -2.51102 -1.70449
5.51869 -2.81531 -1.73476
4.94844 -2.30997 -1.6789
5.55757 -3.00232 -1.7394
5.32794 -2.80295 -1.69408
5.3392 -2.85529 -1.69156
5.13347 -2.7009 -1.6851
5.61612 -3.24969 -1.76064
5.16541 -2.828 -1.6833
5.39088 -3.09561 -1.71704
5.403 -3.1496 -1.71272
5.39508 -3.23743 -1.67739
3.64206 -3.04684 -2.35003
5.33139 -2.54605 -1.7044
4.91086 -2.03329 -2.0032
4.4026 -2.30093 -2.14577
3.04054 -3.40341 -2.14822
4.40691 -2.34256 -1.59819
3.22765 -3.65338 -1.29021
4.70424 -2.25046 -1.68955
4.87854 -2.4194 -1.64246
4.28058 -2.43152 -2.18297
4.46268 -2.32065 -1.80803
5.20883 -3.66721 -1.88719
3.32884 -3.15967 -2.09815
2.9994 -3.51532 -1.70242
4.51921 -3.84161 -1.88181
5.70915 -1.99564 -2.07182
4.15935 -3.20728 -1.78912
3.74001 -2.84756 -2.09667
4.94606 -1.90121 -2.49206
5.48596 -1.85492 -2.36843
5.29268 -1.8082 -2.35135
4.82875 -1.95651 -2.48763
5.03369 -1.80765 -2.37088
4.74271 -2.0618 -2.54857
5.68398 -2.0022 -2.34047
5.64072 -1.94989 -2.29197
5.59955 -1.90775 -2.23962
4.7238 -2.05679 -2.49472
4.90894 -1.89102 -2.32637
5.23854 -1.79678 -2.19117
4.80441 -2.00092 -2.39463
4.89819 -1.90323 -2.29222
5.11542 -1.81854 -2.22006
4.79068 -1.97205 -2.33972
5.12413 -1.87149 -2.21617
5.47621 -1.78763 -2.09528
5.84499 -2.12735 -2.23517
4.78099 -2.00922 -2.34713
5.19798 -1.8042 -2.0951
4.79233 -1.97534 -2.29403
5.80327 -2.09326 -2.17968
5.47357 -1.83145 -2.0387
4.68846 -2.10754 -2.34461
4.86081 -1.95416 -2.23972
5.30547 -1.79004 -2.02705
4.75957 -1.99655 -2.25522
4.89906 -1.95001 -2.22619
5.185 -1.80908 -2.03956
4.77946 -2.05606 -2.27136
4.84779 -1.9581 -2.19511
5.72182 -2.04025 -2.06103
4.78439 -2.05045 -2.24515
5.67638 -1.99252 -2.0097
4.65987 -2.11911 -2.28593
5.30379 -1.85129 -1.97775
5.14592 -1.83557 -1.99233
5.69456 -2.04727 -2.00182
4.59749 -2.314 -2.38341
5.48315 -1.95551 -1.96246
4.58949 -2.29556 -2.3602
4.74861 -2.06516 -2.16125
4.84813 -1.99802 -2.08767
4.56584 -2.24631 -2.32729
5.67313 -2.06281 -1.94761
5.66306 -2.05981 -1.93047
4.54402 -2.2547 -2.24563
4.71095 -2.36719 -2.28619
4.73573 -2.10458 -2.09987
4.45616 -2.36639 -2.33759
4.80255 -2.05328 -2.04745
5.00026 -1.91281 -1.89181
4.83089 -2.04901 -2.03513
4.99451 -2.15378 -2.04624
5.67647 -2.14978 -1.88631
4.63754 -2.22745 -2.17121
4.71205 -2.12454 -2.0979
5.14995 -1.90485 -1.8447
4.61125 -2.17847 -2.12962
4.74773 -2.20096 -2.10986
4.89494 -1.9733 -1.93158
4.99896 -1.93158 -1.87981
4.39729 -2.35733 -2.24378
4.60185 -2.1752 -2.11003
4.84639 -2.15076 -2.03632
4.88782 -1.9693 -1.89635
4.81642 -2.38852 -2.175
5.70349 -2.25424 -1.85791
4.50304 -2.26813 -2.14452
4.80293 -2.3732 -2.15062
4.6963 -2.11792 -1.98481
4.77646 -2.05621 -1.92778
4.884 -2.00693 -1.85268
5.24834 -1.99631 -1.75959
4.49104 -2.27765 -2.11008
5.48906 -2.15909 -1.8049
5.74074 -2.36456 -1.8448
5.24873 -2.04111 -1.74732
5.4827 -2.19 -1.78723
4.36821 -2.32477 -2.14905
4.48335 -2.29233 -2.09087
5.50197 -2.24216 -1.78722
5.77525 -2.45514 -1.84185
4.36876 -2.34439 -2.14268
4.83969 -2.04166 -1.83588
5.27351 -2.09537 -1.74183
4.45552 -2.30258 -2.03864
4.99263 -2.04855 -1.74468
5.12123 -2.09061 -1.73441
5.30753 -2.19467 -1.74201
4.83925 -2.09109 -1.78553
5.86386 -2.66736 -1.84969
5.86665 -2.68704 -1.84031
5.3372 -2.29608 -1.73206
4.98488 -2.15259 -1.69077
5.13831 -2.20459 -1.70589
5.93515 -2.84769 -1.84924
4.4283 -2.3186 -1.95079
5.3662 -2.38641 -1.72859
5.62186 -2.60349 -1.7691
5.40129 -2.40695 -1.73511
5.17598 -2.29758 -1.70753
4.4155 -2.32568 -1.92046
5.40089 -2.55356 -1.72388
5.43283 -2.59836 -1.72322
4.74738 -2.20789 -1.69924
4.60472 -2.27121 -1.75439
4.83093 -2.20822 -1.65327
5.23062 -2.51071 -1.68998
5.02916 -2.40121 -1.66263
5.23756 -2.53983 -1.68584
5.49248 -2.76077 -1.73143
5.25955 -2.59976 -1.69262
5.05122 -2.44839 -1.65995
5.27473 -2.65549 -1.68847
4.87181 -2.37241 -1.65344
5.60188 -3.05246 -1.74947
4.70863 -2.34653 -1.63354
4.34178 -2.42227 -1.79343
4.70044 -2.34552 -1.6177
4.90317 -2.4985 -1.6467
4.23903 -2.49435 -1.84367
4.34816 -2.45752 -1.74907
5.13255 -2.76419 -1.65974
4.9037 -2.54877 -1.61194
4.25443 -2.49722 -1.78068
4.56401 -2.37103 -1.60791
5.18768 -2.90948 -1.68858
5.15346 -2.85287 -1.65201
4.30397 -2.34824 -1.65151
5.51143 -3.31964 -1.75187
5.5253 -3.36276 -1.74738
4.38545 -2.30576 -1.57212
4.41357 -2.40417 -1.57037
4.41728 -2.4519 -1.56048
4.55313 -2.44843 -1.5319
4.23158 -2.59421 -1.68454
4.40479 -2.55176 -1.48293
4.40102 -2.56033 -1.45214
4.3959 -2.60101 -1.43956
4.3967 -2.60974 -1.40023
4.35048 -2.67435 -1.35953
4.74898 -3.34097 -1.2873
4.32588 -2.91452 -1.23443
4.54311 -3.16171 -1.24681
4.55498 -3.20853 -1.2486
4.18243 -2.90286 -1.24327
4.54489 -3.30737 -1.2401
4.18394 -2.96927 -1.21919
4.34157 -3.16071 -1.21165
4.59383 -3.50668 -1.24012
4.57475 -3.45248 -1.21632
4.19191 -3.05222 -1.20745
4.39131 -3.3364 -1.21723
4.19659 -3.12231 -1.20514
4.4048 -3.45187 -1.21362
4.03043 -3.06689 -1.20598
4.41634 -3.50369 -1.21534
4.04893 -3.14398 -1.21136
4.45177 -3.71786 -1.23748
4.04927 -3.20828 -1.20281
4.23921 -3.42578 -1.21175
4.24763 -3.5032 -1.20894
3.76367 -3.95572 -1.22935
3.78055 -3.36044 -1.19935
2.71175 -3.7374 -2.4296
4.43257 -3.59207 -1.2172
5.2957 -2.80145 -1.67689
5.43303 -2.56284 -1.71703
4.64388 -3.40195 -1.24355
5.52116 -2.18024 -1.80701
4.08646 -4.40414 -1.8056
3.50766 -3.01868 -2.09255
2.62288 -3.7865 -2.05552
3.44142 -3.09296 -1.84154
3.54279 -3.14774 -2.36326
3.09915 -3.33847 -2.04052
3.30748 -3.56412 -1.26265
4.02657 -2.64166 -2.13066
5.11488 -1.79507 -2.32324
4.99284 -1.86508 -2.34478
4.79289 -2.00763 -2.45779
4.83235 -2.03622 -2.4482
4.99586 -1.90848 -2.30052
5.18306 -1.78506 -2.1716
4.87294 -1.93628 -2.30768
5.12878 -1.91391 -2.2402
4.94255 -1.89059 -2.19042
4.75682 -2.02188 -2.29523
5.45782 -1.84253 -2.04332
4.76357 -2.0607 -2.27678
5.24789 -1.80063 -1.99513
5.3968 -1.80786 -2.0013
4.93564 -1.94965 -2.1244
5.14058 -1.99762 -2.13869
4.79886 -2.15311 -2.27483
4.9335 -1.95923 -2.11168
5.18024 -2.09528 -2.17447
5.23344 -1.8183 -1.95326
4.65962 -2.3757 -2.44138
4.77583 -2.13095 -2.24403
5.19725 -2.14664 -2.16096
5.44844 -1.91254 -1.96117
5.09648 -1.86252 -1.94135
5.78661 -2.12482 -2.03647
4.5695 -2.2659 -2.31918
4.9144 -1.99142 -2.0461
5.14473 -2.09802 -2.10461
5.40269 -1.89752 -1.89806
4.81155 -2.04141 -2.08987
5.21495 -1.85391 -1.88803
4.69652 -2.11325 -2.15525
5.21323 -1.86981 -1.87041
5.35461 -1.90329 -1.84155
4.38481 -2.49908 -2.38885
5.38687 -1.94989 -1.82266
4.51945 -2.28131 -2.19305
4.82086 -2.33221 -2.17408
4.85178 -2.18774 -2.04925
5.20317 -1.94977 -1.7804
2.94875 -3.44424 -2.49839
4.25984 -2.58408 -2.38314
4.66295 -2.14655 -1.98463
4.75156 -2.06253 -1.93203
5.972 -2.49487 -1.98418
4.23787 -2.57425 -2.34915
4.30455 -2.41989 -2.23895
5.07289 -1.98926 -1.78614
4.95734 -2.01736 -1.78873
4.55728 -2.24014 -1.99709
5.54292 -2.24545 -1.80989
4.12611 -2.668 -2.35307
4.28725 -2.41687 -2.14579
4.26962 -2.43634 -2.1537
4.2453 -2.45383 -2.14124
4.35509 -2.36288 -2.04821
4.09152 -2.59662 -2.24511
4.16641 -2.5249 -2.18207
4.24185 -2.45035 -2.10204
4.7131 -2.15579 -1.79604
4.23267 -2.4166 -2.07961
3.9805 -2.70868 -2.29806
4.42845 -2.33884 -1.94983
4.60851 -2.20941 -1.83641
4.4888 -2.29575 -1.89351
4.70697 -2.20129 -1.74446
5.17966 -2.27866 -1.7239
4.81401 -2.16766 -1.70688
4.11229 -2.51974 -2.04398
4.99088 -2.26028 -1.68134
4.09355 -2.55679 -2.04179
3.76955 -2.95465 -2.376
4.81721 -2.20926 -1.65465
4.4894 -2.3429 -1.78122
5.03561 -2.36096 -1.67891
4.10181 -2.5611 -1.99847
5.05901 -2.41257 -1.67858
5.59891 -2.73499 -1.75834
4.27873 -2.45331 -1.85146
5.35905 -2.65475 -1.71674
3.89458 -2.72214 -2.09946
4.17769 -2.5134 -1.89679
5.71143 -2.923 -1.78366
3.99596 -2.62323 -2.00615
4.09145 -2.57062 -1.95321
5.40178 -2.73511 -1.7229
3.98355 -2.66605 -2.00159
4.57574 -2.33893 -1.67246
5.12991 -2.57291 -1.6744
5.44107 -2.80865 -1.72903
3.88498 -2.70554 -2.03822
4.17143 -2.5376 -1.86442
4.24724 -2.4696 -1.80241
4.36952 -2.44177 -1.75447
5.50153 -2.92737 -1.73371
4.05205 -2.61316 -1.89613
5.23578 -2.77988 -1.69491
5.27477 -2.85861 -1.70042
4.14545 -2.56348 -1.78992
3.94301 -2.70319 -1.93943
3.65697 -2.90549 -2.09668
3.93703 -2.70795 -1.90125
4.37898 -2.55511 -1.69998
4.13806 -2.60776 -1.7438
4.24452 -2.55945 -1.70173
3.73953 -2.85767 -1.9904
3.93639 -2.70639 -1.84653
4.36623 -2.57404 -1.66176
4.43004 -2.4581 -1.59111
4.43254 -2.49756 -1.58266
3.91811 -2.71649 -1.81409
4.02861 -2.66614 -1.76086
4.26424 -2.67557 -1.68146
3.89731 -2.75668 -1.79676
3.98753 -2.71649 -1.74928
3.99274 -2.73959 -1.72837
4.13319 -2.71841 -1.67802
4.43272 -2.55753 -1.50491
3.69713 -2.87793 -1.86559
3.78423 -2.84714 -1.79578
3.88234 -2.80872 -1.74368
3.79208 -2.85825 -1.75275
4.59303 -3.8244 -2.04457
4.13977 -3.11807 -1.79139
4.57603 -3.82443 -2.00882
4.88226 -3.85309 -1.90118
3.64735 -2.95035 -1.79143
3.89517 -2.84042 -1.64718
4.13647 -3.20499 -1.74158
4.56381 -3.84451 -1.97253
3.79694 -2.90436 -1.69801
4.75047 -3.92645 -1.93602
3.58806 -3.10141 -1.85779
4.40106 -2.69275 -1.37406
3.76494 -2.92642 -1.70785
4.73769 -3.9483 -1.89747
3.74835 -2.94977 -1.6886
4.11554 -3.19769 -1.70091
4.53307 -3.85214 -1.90486
4.39275 -2.70563 -1.35041
3.74612 -2.96292 -1.65404
4.0564 -3.12592 -1.61129
3.73862 -2.97522 -1.6092
3.53212 -3.07236 -1.71754
3.63721 -3.05856 -1.652
3.73383 -3.00128 -1.59675
4.24826 -2.81595 -1.30005
3.99669 -3.10129 -1.53162
3.72731 -3.02219 -1.56606
4.00027 -3.11435 -1.49563
4.41702 -3.7804 -1.70611
4.42368 -2.95425 -1.25555
3.72324 -3.04852 -1.54181
3.49893 -3.15732 -1.65391
3.69749 -3.05344 -1.55222
3.81393 -3.00912 -1.46254
3.80925 -3.04712 -1.44405
4.31497 -3.67752 -1.55468
4.13901 -2.9592 -1.24695
4.76257 -3.44293 -1.27556
4.37927 -4.22067 -1.7702
4.14891 -4.44629 -1.94255
3.80148 -3.07269 -1.39978
3.98822 -4.46964 -1.97428
4.11563 -4.40421 -1.89439
3.79977 -3.09772 -1.38215
4.28737 -3.10376 -1.20967
4.10216 -4.41101 -1.84373
3.96997 -4.4917 -1.92835
4.00049 -3.0495 -1.23766
4.61856 -3.56247 -1.24796
3.94278 -4.42987 -1.88948
4.14346 -3.11285 -1.2088
4.08844 -4.43839 -1.81925
4.14186 -3.16464 -1.20065
3.8893 -3.14987 -1.24086
3.92184 -4.46622 -1.83455
3.75935 -3.19913 -1.28693
3.9962 -3.16058 -1.19365
4.00111 -3.21359 -1.1988
4.20525 -3.39206 -1.20758
4.24413 -3.44882 -1.21017
4.04558 -3.30899 -1.19082
4.26027 -3.55154 -1.20719
3.88516 -3.21616 -1.20279
4.05373 -3.34317 -1.19095
4.27826 -3.60394 -1.21073
3.74208 -3.24921 -1.24335
3.88203 -3.24872 -1.19347
3.89243 -3.28616 -1.1853
3.73793 -3.27463 -1.21842
3.86574 -4.58838 -1.68446
3.84048 -4.52808 -1.65022
3.93877 -3.56876 -1.18976
3.76112 -3.44852 -1.18997
3.48604 -3.41422 -1.28542
3.49609 -3.41455 -1.24909
4.02721 -3.91257 -1.21912
3.39471 -3.48752 -1.28707
3.48703 -3.45416 -1.24057
3.60701 -3.48672 -1.19728
3.63757 -3.60376 -1.19415
3.49538 -3.54593 -1.20866
3.50743 -3.61356 -1.21193
3.50557 -3.70898 -1.20732
3.35982 -3.64954 -1.23454
3.34084 -3.75473 -1.23307
3.35484 -3.79459 -1.23193
3.57065 -4.0737 -1.24165
3.45107 -4.28519 -1.29076
3.38364 -4.22617 -1.28954
3.09958 -4.60434 -1.9138
3.54926 -2.99615 -1.84336
4.75027 -2.07095 -2.35034
3.04663 -3.4115 -1.84378
4.11356 -2.56253 -1.84518
3.15102 -3.31873 -1.78757
4.64546 -2.15927 -2.13038
2.74474 -3.60275 -2.39432
3.6358 -2.91013 -2.04324
3.20856 -3.70129 -1.55203
2.89311 -3.69662 -1.59182
4.77818 -1.97339 -2.49792
5.2314 -1.79306 -2.31437
4.84567 -1.94623 -2.39661
4.94833 -1.87213 -2.33519
5.18564 -1.79437 -2.25322
5.07681 -1.85239 -2.29144
4.78236 -2.03842 -2.43949
4.84048 -1.95062 -2.34591
4.95039 -1.89349 -2.34631
4.95155 -1.90549 -2.29435
5.23383 -1.76547 -2.09625
4.6489 -2.12485 -2.3993
4.90468 -1.95261 -2.19857
5.19205 -1.7644 -2.04917
4.65147 -2.16159 -2.39791
4.73524 -2.09583 -2.29929
5.08751 -1.80493 -2.04855
4.70654 -2.06796 -2.27658
4.89584 -1.96942 -2.15133
5.07692 -1.84653 -2.05077
5.36279 -1.80215 -1.98416
5.37199 -1.83081 -1.96696
4.98949 -1.95172 -2.05569
4.6873 -2.11349 -2.19827
4.54671 -2.29257 -2.33605
5.00488 -1.98691 -2.04379
5.04803 -2.03644 -2.06002
4.51601 -2.27948 -2.2907
5.36229 -1.89063 -1.89191
4.83943 -2.01682 -2.0145
4.45509 -2.40112 -2.35348
4.40221 -2.36618 -2.28255
4.70303 -2.20721 -2.13415
4.47398 -2.29309 -2.19888
4.56445 -2.22729 -2.14653
5.30624 -1.90579 -1.79355
4.54034 -2.255 -2.14381
4.63881 -2.18198 -2.10035
4.78249 -2.15823 -2.04557
4.9427 -2.16464 -2.03212
4.54677 -2.25201 -2.0914
4.62683 -2.18228 -2.02715
4.43907 -2.31894 -2.1098
4.41029 -2.30902 -2.09853
4.88261 -2.0549 -1.78975
4.40971 -2.33975 -2.0364
4.66077 -2.16092 -1.84307
4.49455 -2.28131 -1.97115
4.29634 -2.40411 -2.04388
4.39548 -2.35159 -1.99938
4.48416 -2.29242 -1.94247
5.03096 -2.07816 -1.71334
4.22215 -2.48981 -2.10878
4.30238 -2.41751 -2.002
4.75882 -2.16672 -1.74042
4.88145 -2.15262 -1.69162
5.04994 -2.15012 -1.6924
4.11542 -2.5614 -2.12463
4.19171 -2.49985 -2.04006
4.28123 -2.43503 -1.98775
5.89867 -2.6095 -1.87208
4.09793 -2.55798 -2.08747
4.64691 -2.21744 -1.76654
3.88498 -2.79474 -2.29865
4.44753 -2.32706 -1.84631
4.6447 -2.23691 -1.74451
5.98232 -2.70731 -1.88362
4.54994 -2.29645 -1.78881
4.44383 -2.35043 -1.79086
3.76329 -2.91605 -2.33632
4.25302 -2.46524 -1.89639
5.57034 -2.55884 -1.75629
4.15997 -2.52145 -1.95454
4.063 -2.59232 -1.9922
4.15353 -2.53485 -1.93554
3.68291 -3.04831 -2.37988
3.97899 -2.65631 -2.04644
4.7728 -2.30545 -1.64414
5.72548 -2.73828 -1.79046
3.73601 -2.88742 -2.24258
4.43706 -2.39594 -1.74039
4.62465 -2.30475 -1.64811
5.78008 -2.81009 -1.80367
3.68619 -2.9147 -2.24701
4.13995 -2.54401 -1.89152
3.96634 -2.67682 -2.01672
3.61139 -2.96756 -2.25332
4.86772 -2.4447 -1.64215
3.67819 -2.89386 -2.1496
4.32352 -2.49313 -1.74302
4.61237 -2.33658 -1.59858
3.52589 -3.09045 -2.31311
3.78014 -2.84277 -2.0942
5.17078 -2.62177 -1.66572
3.51047 -3.0683 -2.27903
4.31891 -2.49426 -1.73389
5.18697 -2.65863 -1.67919
5.63268 -2.92731 -1.75948
5.66341 -2.97046 -1.76087
3.49951 -3.06061 -2.23989
4.31023 -2.50397 -1.69381
3.58694 -2.96048 -2.15579
4.26845 -2.30035 -1.56142
3.8279 -2.79852 -1.93773
4.34778 -2.41068 -1.59885
3.48703 -3.05402 -2.19901
4.38957 -2.48984 -1.60006
3.54277 -2.99612 -2.10168
3.46037 -3.07184 -2.17923
3.90089 -2.7515 -1.8489
3.30695 -3.31235 -2.34095
3.46028 -3.06339 -2.14316
3.9894 -2.68921 -1.78056
3.35114 -3.16208 -2.19186
3.79124 -2.81491 -1.88549
3.2831 -3.25702 -2.28645
3.44063 -3.08435 -2.14695
3.70822 -2.87589 -1.94133
4.09175 -2.66595 -1.70066
4.47896 -2.48685 -1.49712
3.51059 -3.01471 -1.99708
3.23666 -3.25528 -2.19946
4.08237 -2.7103 -1.65617
4.30379 -2.64548 -1.57714
5.33299 -3.17902 -1.66006
3.58307 -2.96408 -1.90176
3.4859 -3.04391 -1.99605
3.87386 -2.84433 -1.70146
4.0862 -2.74588 -1.59346
3.01093 -3.40002 -2.24712
3.29665 -3.15805 -2.03963
3.98013 -2.80685 -1.65954
4.18056 -2.7092 -1.54793
4.34673 -2.60043 -1.43134
3.19798 -3.26453 -2.09678
3.47934 -3.0545 -1.90195
3.5731 -2.98386 -1.84628
3.13109 -3.42114 -2.19178
3.85025 -2.85733 -1.65926
4.20964 -3.23102 -1.77428
3.86012 -2.89835 -1.64846
4.19002 -3.26279 -1.71325
3.23834 -3.24731 -1.94736
3.35025 -3.1647 -1.85215
3.08505 -3.41486 -2.0767
3.06725 -3.38284 -2.04564
3.05461 -3.36395 -2.02212
3.43236 -3.12177 -1.76223
3.64732 -3.048 -1.67862
3.04503 -3.37039 -1.99566
3.33249 -3.194 -1.79668
3.23253 -3.25357 -1.84217
4.1266 -3.23663 -1.61402
4.08783 -3.1886 -1.57714
4.02092 -3.09265 -1.5233
3.52818 -3.12994 -1.66051
3.32205 -3.21521 -1.76075
3.22356 -3.28354 -1.81167
3.31487 -3.21616 -1.74802
3.42119 -3.189 -1.69229
3.10283 -3.36172 -1.84774
4.24393 -2.85153 -1.25132
3.00652 -3.41974 -1.89895
3.98651 -4.11948 -2.02421
4.1105 -2.92371 -1.27646
3.10994 -3.36899 -1.79953
3.38739 -3.24863 -1.64852
4.00876 -3.20242 -1.44491
2.98788 -3.45801 -1.85067
4.11032 -2.96188 -1.24682
4.02483 -3.24319 -1.43826
3.09367 -3.35892 -1.76638
3.17986 -3.34644 -1.72946
4.31277 -3.74796 -1.59534
4.29591 -3.04425 -1.22731
3.19202 -3.35925 -1.6992
4.03534 -4.34671 -1.99106
4.09097 -3.00754 -1.22654
2.99434 -3.46042 -1.80102
3.82999 -4.24539 -1.9784
3.99626 -4.293 -1.94227
4.3291 -3.79385 -1.58871
4.33987 -3.15186 -1.22287
4.29251 -4.30414 -1.8492
4.3629 -3.19849 -1.22404
4.37993 -3.23804 -1.22081
3.18478 -3.40302 -1.64566
3.78845 -4.2243 -1.90303
4.43025 -3.34979 -1.23054
3.78374 -4.24362 -1.88297
4.48337 -3.43564 -1.23525
3.06227 -3.46817 -1.70313
4.52678 -3.51593 -1.24337
3.17851 -3.45541 -1.63301
3.2626 -3.36093 -1.54033
3.75359 -4.21198 -1.83741
3.79533 -3.19815 -1.28379
4.54349 -3.55557 -1.23962
3.4415 -3.80847 -1.72151
4.62111 -3.68753 -1.26342
3.05672 -3.51242 -1.65625
3.18159 -3.50815 -1.63024
3.75519 -4.24423 -1.82388
2.94719 -3.56277 -1.69486
3.1946 -3.53925 -1.63117
3.79625 -3.21576 -1.25482
2.83873 -3.57858 -1.7545
3.18297 -3.55603 -1.59978
2.83936 -3.60883 -1.74932
3.41516 -3.81696 -1.66235
3.78893 -3.24857 -1.23467
4.40309 -3.63672 -1.23044
3.03583 -3.54373 -1.64038
3.41183 -3.84491 -1.64244
4.12718 -3.423 -1.19352
3.03793 -3.55762 -1.59653
3.18301 -3.59036 -1.58465
3.78455 -3.29556 -1.19961
2.82437 -3.63004 -1.70641
3.17726 -3.61066 -1.56401
3.39781 -3.85556 -1.6086
3.95859 -3.41391 -1.19351
4.21156 -3.6123 -1.20887
2.83586 -3.66241 -1.69448
3.33788 -3.42493 -1.39735
4.24657 -3.68817 -1.21476
4.00162 -3.50339 -1.19138
2.93385 -3.63376 -1.632
3.21727 -3.76477 -1.58383
2.80499 -3.70511 -1.69652
3.45715 -4.07141 -1.63123
2.81027 -3.71451 -1.64314
3.54236 -3.41229 -1.24978
3.84218 -3.50217 -1.19723
4.10066 -3.69595 -1.20466
3.54677 -3.46017 -1.239
4.10794 -3.76941 -1.20719
3.89165 -3.61206 -1.19675
4.16528 -3.89023 -1.22596
2.90224 -3.70953 -1.54626
3.94165 -3.75967 -1.209
3.44008 -3.50699 -1.25246
3.54619 -3.51001 -1.21014
3.9771 -3.84583 -1.2175
3.5773 -4.52545 -1.67025
4.01324 -3.9339 -1.22603
3.0011 -3.67477 -1.4548
3.55856 -3.55569 -1.20656
3.44772 -3.54575 -1.23534
3.58418 -3.61938 -1.20447
3.79747 -3.80676 -1.20927
2.89685 -3.75226 -1.49756
2.99495 -3.70102 -1.4364
3.2072 -3.61206 -1.32942
3.42529 -3.56207 -1.22036
3.59254 -3.66095 -1.20219
3.19923 -3.61127 -1.3121
3.30295 -3.59848 -1.25064
3.19676 -3.65073 -1.28789
2.89592 -3.77158 -1.4668
3.31256 -3.65622 -1.23586
2.89445 -3.80069 -1.44884
2.86371 -3.79709 -1.43874
3.09695 -3.7215 -1.3149
3.20215 -3.75061 -1.24957
2.96069 -3.77716 -1.3509
3.36374 -3.8602 -1.23572
3.38434 -3.95096 -1.23871
3.40572 -4.02524 -1.24522
3.45662 -4.21112 -1.26845
3.09547 -3.91507 -1.28882
3.50587 -4.3472 -1.28746
4.31973 -3.70755 -1.21632
2.60699 -3.85907 -2.20295
4.89648 -2.27798 -1.64437
5.01462 -2.16519 -1.66493
4.40669 -2.32028 -1.97732
3.21475 -3.42371 -2.27671
4.29361 -2.77454 -1.30728
2.68436 -3.96866 -1.97874
2.99593 -4.60013 -2.07329
3.31921 -4.71725 -1.74095
4.89128 -1.94116 -2.48521
4.76042 -2.02289 -2.47981
4.72812 -2.09518 -2.35927
5.38165 -1.76706 -2.01548
4.73531 -2.02765 -2.18949
4.91577 -1.90707 -2.06008
4.59834 -2.22202 -2.29588
4.65901 -2.16199 -2.19453
5.36401 -1.83707 -1.92271
5.32433 -1.82693 -1.89229
5.31885 -1.83481 -1.87825
4.6662 -2.19449 -2.17036
4.45558 -2.32785 -2.24106
4.74191 -2.13303 -2.07258
4.42995 -2.33612 -2.20135
4.33739 -2.41071 -2.25401
4.71251 -2.15225 -2.02904
4.25465 -2.47623 -2.28118
4.96637 -1.96954 -1.81836
4.23178 -2.49826 -2.28185
4.20511 -2.60651 -2.35881
4.4781 -2.29758 -2.05108
4.54124 -2.2305 -1.96257
4.08968 -2.71341 -2.36753
5.12805 -2.02426 -1.70706
4.03133 -2.66367 -2.30219
4.08257 -2.56927 -2.1953
5.16052 -2.05429 -1.71033
4.00081 -2.80246 -2.38234
4.14937 -2.51529 -2.10365
4.81882 -2.1145 -1.72518
3.93259 -2.75357 -2.30312
4.12523 -2.51364 -2.05795
5.38954 -2.26065 -1.73866
3.85028 -2.85938 -2.33641
4.21097 -2.47446 -1.98389
3.82199 -2.83929 -2.30199
5.05246 -2.20038 -1.67059
5.5071 -2.36398 -1.75585
3.87863 -2.76175 -2.19724
5.08061 -2.23123 -1.66973
3.77039 -2.83557 -2.20832
3.90517 -2.67325 -2.05769
4.90717 -2.2962 -1.63776
3.83862 -2.7724 -2.11492
4.94696 -2.33527 -1.64375
3.83499 -2.78488 -2.09652
5.38017 -2.51492 -1.70802
3.90207 -2.71835 -2.00892
4.75024 -2.35056 -1.62805
5.00319 -2.3985 -1.64355
3.57732 -3.00891 -2.2532
4.30164 -2.27692 -1.59047
3.99504 -2.64902 -1.90324
3.79852 -2.79358 -2.02308
3.73573 -2.89035 -1.78562
3.00101 -3.4147 -2.56004
4.28174 -2.27594 -1.56469
4.35658 -2.5062 -1.68172
4.86339 -2.48706 -1.62486
3.46147 -3.27789 -2.39403
3.62502 -2.94022 -2.11871
4.28383 -2.29871 -1.54409
5.25482 -2.65146 -1.6744
5.27251 -2.67676 -1.66848
2.96359 -3.38879 -2.48351
5.32095 -2.72351 -1.67652
3.68382 -2.89349 -1.99383
3.80124 -2.8063 -1.94833
3.08142 -3.3696 -2.44292
3.57841 -2.92557 -2.04261
3.92674 -2.71021 -1.79942
2.96107 -3.40839 -2.45043
4.13768 -2.62515 -1.71488
3.35666 -3.19574 -2.2368
3.41312 -3.09686 -2.13732
5.02832 -2.69504 -1.61045
3.33806 -3.18628 -2.20475
3.5912 -2.96674 -2.0026
3.68265 -2.89221 -1.93956
5.10373 -2.76627 -1.629
3.25893 -3.27408 -2.27153
3.65927 -2.90848 -1.93517
3.40323 -3.10867 -2.09556
3.57784 -2.98682 -1.98681
2.85179 -3.4978 -2.44635
3.3134 -3.17892 -2.15812
3.65298 -2.91855 -1.89532
3.74979 -2.85687 -1.84698
3.56038 -2.9913 -1.9444
4.00304 -2.71237 -1.6693
4.23106 -2.64856 -1.5854
2.83856 -3.50824 -2.40519
3.04507 -3.39774 -2.29535
5.51515 -3.15454 -1.73021
3.46494 -3.06003 -1.98466
3.74751 -2.86124 -1.80285
3.91132 -2.77606 -1.71151
4.02277 -2.7439 -1.66962
4.2151 -2.64462 -1.56621
4.42874 -2.56058 -1.46998
3.21729 -3.28046 -2.17418
2.89223 -3.45499 -2.34579
3.17258 -3.43317 -2.27344
4.10936 -2.71155 -1.58729
2.89725 -3.45245 -2.2914
3.18253 -3.29092 -2.09125
3.2614 -3.20462 -2.03413
3.45668 -3.06448 -1.89703
3.25339 -3.22446 -2.00681
3.43373 -3.08749 -1.88618
3.6115 -2.98373 -1.78131
3.9998 -2.79626 -1.58359
3.11548 -3.41153 -2.1604
3.95662 -2.9129 -1.65554
3.1713 -3.30115 -2.05803
3.5074 -3.04935 -1.79105
5.12508 -3.62921 -1.90081
2.9008 -3.4993 -2.23272
4.43651 -2.66513 -1.37335
3.00462 -3.44904 -2.18658
2.89931 -3.5137 -2.20048
3.91849 -2.91675 -1.59064
5.13966 -3.68521 -1.86584
3.13063 -3.50037 -2.13605
3.5065 -3.06952 -1.74567
2.69785 -3.64828 -2.29176
2.88011 -3.51349 -2.14961
4.30534 -2.7525 -1.34563
3.1806 -3.6192 -2.1524
4.98479 -3.77792 -1.85509
3.69641 -3.01816 -1.61284
3.29063 -3.21939 -1.8018
2.85941 -3.54709 -2.09373
3.02554 -3.39355 -1.97409
3.12065 -3.3475 -1.915
3.58928 -3.06699 -1.65541
2.69751 -3.74167 -2.25188
4.29311 -2.80447 -1.29216
3.00705 -3.41217 -1.94986
2.67996 -3.69962 -2.24297
4.84517 -3.884 -1.85147
2.74193 -3.65005 -2.14199
4.29546 -2.85703 -1.24564
3.01784 -3.67609 -2.07204
3.70047 -3.09753 -1.5379
3.77026 -3.03845 -1.49042
2.791 -3.75119 -2.15514
2.8241 -3.83588 -2.18359
3.48936 -3.203 -1.59454
2.80925 -3.82535 -2.15436
2.98961 -3.43042 -1.87047
3.49844 -3.21133 -1.63445
2.72838 -3.67395 -2.05156
2.88896 -3.74512 -2.05787
3.56203 -3.16885 -1.5339
4.43983 -4.16531 -1.93967
2.69334 -3.65497 -1.99583
4.39401 -2.99753 -1.23007
2.78679 -3.58981 -1.94596
3.57344 -3.19638 -1.53045
4.44156 -4.1561 -1.89443
3.75351 -3.11099 -1.39832
4.07933 -2.98911 -1.27424
4.19298 -2.992 -1.22245
3.27417 -3.3602 -1.64752
2.60616 -3.75568 -2.04035
3.07024 -3.43173 -1.74965
4.4106 -4.15445 -1.8508
3.04662 -3.45313 -1.74422
3.25552 -3.35025 -1.63934
2.68794 -3.67679 -1.95499
4.59908 -3.25681 -1.25235
3.73328 -3.12082 -1.35685
3.95216 -3.06717 -1.25508
4.62263 -3.31256 -1.22228
2.77858 -3.63101 -1.87771
2.59413 -3.80707 -1.99695
2.77243 -3.64572 -1.85528
3.15372 -3.45044 -1.64242
3.34831 -3.35077 -1.52689
3.83748 -3.15237 -1.24657
4.43388 -3.31882 -1.21527
2.67961 -3.74875 -1.89031
3.16545 -3.49893 -1.61191
4.53191 -3.44894 -1.22736
2.60222 -3.88892 -1.96143
3.16321 -3.53595 -1.58114
4.36513 -3.50195 -1.20433
2.7462 -3.71881 -1.75519
2.672 -3.84973 -1.83037
4.18782 -3.49747 -1.1974
2.66873 -3.86246 -1.8098
3.55728 -4.07199 -1.65128
3.14357 -3.60855 -1.49295
2.82884 -3.73782 -1.62655
2.92438 -3.70407 -1.54731
2.82631 -3.75723 -1.59922
4.1721 -3.76657 -1.21404
2.75121 -3.91037 -1.68576
4.00732 -3.7966 -1.20562
4.09712 -3.9487 -1.24241
2.82468 -3.80911 -1.5468
4.12633 -3.98529 -1.23126
2.80635 -3.85196 -1.54764
2.83263 -3.90744 -1.52824
3.9758 -4.0412 -1.2285
2.86859 -4.00507 -1.55399
2.99513 -3.7681 -1.35934
3.31447 -3.6806 -1.21896
3.53012 -3.81955 -1.22077
3.85484 -4.12152 -1.25187
3.57207 -3.91626 -1.2184
3.39418 -3.85669 -1.23671
3.64511 -4.05353 -1.23811
3.00668 -3.83572 -1.33411
3.23726 -3.86166 -1.24493
3.12102 -3.86829 -1.27699
3.75156 -4.26141 -1.26085
3.34958 -4.09695 -1.25814
3.60013 -4.29517 -1.26982
3.3958 -4.1492 -1.26237
3.41158 -4.23871 -1.27088
3.00011 -3.75943 -2.1031
2.84735 -4.375 -2.08642
2.59189 -3.84595 -1.99147
3.82826 -3.26663 -1.23158
4.76312 -2.02362 -2.4329
4.66624 -2.15427 -2.435
5.10309 -1.78012 -2.0723
4.93614 -1.95074 -2.2066
5.07565 -1.81583 -2.01209
4.77907 -2.04767 -2.18756
5.04768 -1.82162 -1.98254
4.76385 -2.2843 -2.40463
4.87617 -1.98203 -2.11784
5.22028 -2.02405 -2.1525
5.25327 -2.06293 -2.14095
4.54277 -2.35068 -2.37895
5.21822 -2.09576 -2.0751
4.3833 -2.41409 -2.32762
4.97246 -1.92273 -1.81269
4.07901 -2.60107 -2.21054
4.84787 -2.12656 -1.71099
3.85336 -2.89511 -2.37474
3.82755 -2.8959 -2.3473
4.16182 -2.48962 -1.98246
5.21924 -2.21457 -1.71012
4.89558 -2.21066 -1.6633
4.08125 -2.58817 -1.99297
4.14029 -2.52426 -1.89724
5.04964 -2.32483 -1.6785
3.63474 -2.94839 -2.23892
4.72751 -2.29352 -1.64647
3.60016 -3.07458 -2.34452
4.30832 -2.31955 -1.6484
4.3318 -2.3432 -1.64758
3.49397 -3.15634 -2.35312
2.95442 -3.42487 -2.531
4.42714 -2.44693 -1.63556
3.54836 -2.97363 -2.09681
3.81256 -2.77975 -1.94268
3.37666 -3.25235 -2.35244
4.4149 -2.4556 -1.61345
3.33159 -3.2189 -2.30559
3.38429 -3.12848 -2.20296
3.84534 -2.8367 -1.92818
3.29848 -3.21768 -2.24967
3.38162 -3.14426 -2.1988
3.35698 -3.12875 -2.15681
2.82646 -3.54266 -2.49662
3.09335 -3.35052 -2.2959
4.05431 -2.66275 -1.67072
3.26773 -3.22412 -2.17814
3.86612 -2.80496 -1.75021
4.06064 -2.6774 -1.66281
3.26144 -3.22806 -2.16335
2.8 -3.71011 -2.56366
3.18057 -3.31458 -2.20985
2.73518 -3.6481 -2.50003
2.87733 -3.487 -2.34652
3.56221 -2.96976 -1.87898
2.96309 -3.41833 -2.26847
3.14781 -3.31616 -2.14915
3.7506 -2.90891 -1.74422
2.84824 -3.49826 -2.29725
2.96231 -3.44934 -2.25077
2.68849 -3.64978 -2.39461
3.14397 -3.31366 -2.09796
4.01741 -2.7525 -1.53147
5.15602 -3.6008 -1.99041
2.74889 -3.61249 -2.2485
2.92867 -3.48651 -2.13859
3.17668 -3.30063 -1.94701
5.00267 -3.702 -1.98999
2.91235 -3.4769 -2.11586
2.75436 -3.63776 -2.23786
5.1048 -3.62985 -1.89748
4.52371 -2.7952 -1.35825
3.10257 -3.34921 -1.94699
2.90269 -3.52133 -2.05721
3.15645 -3.65643 -2.12715
2.66367 -3.75754 -2.24809
4.23476 -2.76724 -1.30948
3.61531 -3.07254 -1.60835
2.81032 -3.56378 -2.09219
3.21774 -3.27197 -1.78664
2.64018 -3.75797 -2.19729
2.73233 -3.68704 -2.14963
2.8084 -3.81198 -2.19986
2.80527 -3.60825 -2.05635
3.60776 -3.10416 -1.56563
4.96069 -3.7912 -1.84217
4.24779 -2.82483 -1.26108
3.42218 -3.22125 -1.66102
4.97878 -3.81934 -1.83482
2.69344 -3.66928 -2.07393
2.61098 -3.77377 -2.12199
2.66756 -3.66507 -2.03547
2.84282 -3.55768 -1.89251
2.93781 -3.49979 -1.84451
4.13792 -2.90717 -1.25419
2.74712 -3.61209 -1.95491
4.22299 -3.58682 -1.66308
3.37865 -3.26401 -1.55369
2.59541 -3.8049 -2.0398
2.83128 -3.59268 -1.84753
2.65767 -3.71469 -1.95856
4.61124 -4.15845 -1.89919
4.27998 -3.69946 -1.62365
3.29085 -3.37009 -1.56079
4.41983 -4.18408 -1.90679
3.10233 -3.50143 -1.63408
2.59734 -3.9025 -1.99073
2.80914 -3.63757 -1.77956
2.80705 -3.65948 -1.74836
2.90739 -3.61008 -1.69704
3.16772 -3.43732 -1.54965
4.05359 -4.24478 -1.90734
4.39478 -3.87933 -1.59275
4.56703 -3.40012 -1.23682
2.71011 -3.71774 -1.79813
3.17258 -3.45361 -1.5423
4.54465 -4.03589 -1.63976
2.6319 -3.98715 -1.99585
2.66426 -3.84814 -1.87941
3.16383 -3.47171 -1.51152
4.15129 -4.40289 -1.92845
4.2377 -4.30981 -1.84468
2.68007 -4.10211 -2.04584
2.71144 -3.73782 -1.78203
2.89705 -3.63849 -1.67388
2.99937 -3.57822 -1.6134
2.68042 -3.901 -1.85275
2.89958 -3.65723 -1.64313
2.99864 -3.60037 -1.59134
3.08035 -3.56424 -1.5406
3.16371 -3.48944 -1.49481
3.68312 -3.30591 -1.24378
2.71489 -3.79935 -1.73261
2.69162 -3.98837 -1.8223
2.74619 -4.10944 -1.83223
2.79485 -3.78235 -1.63205
2.9623 -3.66928 -1.50295
2.77507 -4.15567 -1.85408
2.96509 -4.46399 -1.9829
2.87845 -3.74591 -1.53674
3.89352 -4.46332 -1.75483
3.47983 -3.50085 -1.2332
3.62703 -3.50385 -1.20081
4.16306 -3.69431 -1.20744
2.79222 -3.83917 -1.58065
2.95448 -3.71832 -1.44727
2.87059 -3.79843 -1.49152
3.05965 -3.70169 -1.38382
3.14981 -3.64392 -1.33128
3.38332 -3.60776 -1.23806
3.54915 -3.5957 -1.21093
4.10207 -3.85846 -1.22178
3.14154 -3.66376 -1.30029
3.24498 -3.6076 -1.26659
3.5605 -3.65292 -1.20848
3.80632 -3.73865 -1.20314
2.93645 -4.30161 -1.73244
3.04665 -3.73288 -1.33526
3.96759 -3.9397 -1.22441
2.95474 -3.79639 -1.38066
3.14842 -3.70172 -1.2767
3.28471 -3.71765 -1.24884
3.29802 -3.74124 -1.24234
3.09669 -4.38748 -1.65145
3.80888 -3.98126 -1.22825
3.1248 -4.45215 -1.67723
3.86938 -4.05969 -1.23767
3.95892 -4.16925 -1.25801
3.47351 -4.00903 -1.24001
3.50166 -4.30493 -1.28356
3.58755 -4.40909 -1.30871
4.29286 -3.68579 -1.23462
2.88251 -4.32486 -1.86559
4.6814 -2.20847 -2.44328
4.50529 -2.25162 -2.25241
4.45547 -2.26999 -2.1919
4.39346 -2.47989 -2.38754
4.4351 -2.28006 -2.16455
4.36913 -2.37921 -2.23453
4.33644 -2.3891 -2.19545
