-8.41803 -13.1958 -1.99512
-6.08707 -11.4297 -2.05983
-8.10049 -12.8533 -2.29694
-6.19516 -11.3665 -2.58506
-6.93318 -12.0219 -2.01076
-8.23947 -13.7023 -1.9094
-6.3665 -11.8672 -1.89276
-7.75987 -12.5975 -2.34809
-7.95396 -12.7273 -2.30299
-7.46481 -12.5265 -1.73657
-6.91263 -11.8007 -1.8484
-7.95036 -12.7487 -2.12475
-7.72502 -12.6429 -1.96288
-5.85379 -11.5968 -1.98642
-7.61302 -12.8291 -1.47479
-6.16931 -12.0022 -1.88677
-6.06441 -11.39 -2.46089
-8.50105 -13.1263 -2.32755
-7.355 -12.3079 -2.38992
-6.41064 -11.8185 -2.28978
-8.42039 -13.0646 -2.70474
-5.45503 -11.5561 -2.45383
-7.98216 -13.0226 -1.77729
-7.94823 -12.7501 -2.48962
-5.79062 -11.7697 -1.96592
-5.66335 -11.3941 -2.58008
-7.23856 -12.2143 -2.39295
-7.71385 -12.5988 -2.04753
-8.47801 -13.4745 -2.46905
-7.36513 -12.3118 -2.24718
-7.4845 -12.682 -1.72675
-5.51317 -11.4698 -2.25625
-8.28226 -13.1327 -2.27015
-7.32253 -12.2868 -2.0499
-7.95477 -14.2059 -2.49183
-6.17201 -11.3531 -2.60725
-8.15656 -12.9315 -2.08879
-6.2679 -11.5056 -2.35045
-6.9664 -13.5981 -1.50706
-5.81613 -12.0556 -1.96199
-7.89671 -13.2076 -1.48354
-7.15819 -12.206 -2.54716
-8.54581 -13.3506 -2.43369
-7.31528 -12.2577 -2.19824
-5.90761 -11.4546 -2.01279
-6.08687 -11.3495 -2.34771
-6.96187 -12.054 -2.4482
-7.65408 -13.3725 -1.46559
-8.24084 -12.9576 -2.24059
-6.86705 -12.3128 -1.51371
-7.9617 -13.0488 -1.79113
-7.79504 -13.5055 -1.48293
-6.63954 -11.8039 -1.991
-6.83394 -11.9823 -2.48479
-6.69548 -11.8841 -1.93541
-7.45772 -12.6624 -1.60047
-8.40242 -13.104 -2.67514
-6.31761 -11.496 -2.68746
-6.66139 -11.7918 -2.34351
-6.95274 -13.1375 -1.45995
-7.09645 -12.6406 -1.41336
-8.43532 -13.0182 -2.66722
-6.01028 -12.0962 -1.92384
-8.35197 -13.0218 -2.59631
-7.06223 -12.14 -2.48834
-7.2668 -13.8734 -2.03735
-5.67174 -12.2156 -1.98247
-8.58899 -13.2314 -2.2553
-6.58858 -12.7469 -1.44913
-7.29744 -12.6644 -1.44706
-7.65956 -12.5869 -2.45529
-6.1272 -11.4353 -2.08294
-7.80519 -13.6066 -1.51214
-8.22017 -13.9202 -2.24921
-6.29866 -11.4186 -2.65776
-7.74287 -12.5914 -2.38844
-7.19919 -12.1874 -2.19149
-6.37221 -12.9503 -1.54386
-8.18427 -13.9049 -2.19493
-7.23636 -12.2603 -1.94924
-6.68774 -12.8327 -1.46742
-7.1537 -13.2281 -1.45314
-8.44434 -13.0717 -2.43502
-8.04393 -12.8186 -2.10154
-6.93372 -12.7933 -1.44397
-6.61926 -11.7903 -2.02962
-6.62675 -11.7879 -2.50853
-5.42172 -11.8157 -2.08636
-7.23381 -12.6062 -1.47339
-5.22678 -11.9678 -2.16961
-7.89574 -13.2556 -1.47692
-6.54597 -11.7209 -2.55602
-5.99939 -12.4769 -1.88548
-7.00708 -12.0694 -2.53739
-5.50912 -11.5081 -2.2355
-6.28175 -11.4112 -2.67871
-8.45992 -13.4036 -1.99482
-6.0415 -11.3306 -2.28587
-5.86958 -12.6082 -1.92378
-7.58484 -12.4778 -2.08509
-6.35909 -11.6377 -1.93492
-6.78564 -12.6639 -1.45941
-7.71138 -12.583 -2.4039
-6.37479 -11.5742 -2.36061
-6.16753 -11.6209 -1.94979
-6.86185 -12.698 -1.46013
-8.32565 -13.2541 -1.79182
-6.28545 -11.5215 -2.06459
-6.52109 -11.7324 -2.36874
-5.996 -11.556 -1.98229
-7.71152 -12.6035 -2.44836
-6.57132 -12.9733 -1.50259
-6.0621 -11.4081 -2.47734
-7.43619 -12.4097 -1.87568
-6.00291 -11.3497 -2.18737
-6.72588 -12.8083 -1.4657
-7.88245 -14.3099 -2.24791
-7.39261 -12.3597 -1.99277
-7.54471 -13.4257 -1.47617
-6.86229 -11.9377 -2.34377
-7.64725 -13.1859 -1.45221
-8.10158 -13.9981 -2.02221
-7.57661 -12.4875 -2.09266
-8.2899 -13.7815 -2.45002
-5.88261 -11.8317 -1.95423
-7.29521 -12.3374 -1.90008
-6.26057 -11.6536 -2.39685
-8.0605 -14.0714 -2.52583
-6.79843 -11.9045 -2.49537
-8.16508 -12.8562 -2.69355
-7.21458 -12.245 -2.45273
-7.77591 -13.6883 -1.9085
-5.66383 -11.4772 -2.13264
-7.15349 -13.1695 -1.45677
-8.26279 -13.1912 -2.26768
-8.12248 -13.1908 -1.60259
-6.80946 -13.4713 -1.50601
-5.87611 -11.5306 -1.99783
-6.69725 -11.8546 -1.88855
-8.4053 -13.0938 -2.38729
-6.1476 -11.4182 -2.30775
-6.88443 -11.9722 -2.50093
-7.52681 -13.2888 -1.46143
-6.00224 -11.3346 -2.53682
-6.25587 -11.4528 -2.29324
-7.71112 -13.1749 -1.43167
-6.06512 -11.4943 -2.33622
-7.26619 -12.2341 -2.33771
-7.76068 -12.5911 -2.29311
-7.99214 -12.953 -1.83714
-7.95082 -13.0048 -1.8307
-7.86234 -12.6826 -2.30447
-7.40085 -12.3823 -2.53089
-7.41925 -12.3451 -2.19447
-7.30981 -12.2812 -2.33471
-6.2914 -11.4586 -2.64767
-5.96284 -11.6963 -1.96193
-8.30963 -13.0204 -2.34679
-7.62158 -14.0239 -1.69857
-6.3522 -11.5648 -2.24362
-6.55577 -13.1015 -1.50091
-6.61479 -11.7581 -2.14581
-6.80846 -12.0321 -1.87477
-6.19232 -11.5383 -1.98242
-7.10414 -12.1097 -2.24163
-7.21834 -12.2521 -1.93786
-7.91063 -13.3098 -1.4779
-6.8484 -11.9708 -2.44382
-8.34924 -13.0115 -2.34426
-7.54712 -12.847 -1.48074
-7.96489 -13.0968 -1.79304
-7.52687 -12.4327 -2.23392
-8.41917 -13.1905 -2.02933
-6.36537 -11.6025 -1.99853
-5.99706 -11.3227 -2.53126
-5.78613 -11.3426 -2.57602
-5.72598 -12.0692 -1.96508
-8.5894 -13.264 -2.33866
-7.40543 -12.6523 -1.54747
-7.83389 -13.0277 -1.49808
-7.53371 -12.4278 -2.28107
-8.28221 -12.9803 -2.47524
-8.05733 -12.8081 -2.39773
-6.28732 -11.4461 -2.27071
-6.86906 -12.4439 -1.46336
-8.44569 -13.577 -2.39235
-7.89772 -12.7059 -2.34312
-7.95129 -12.9654 -1.85649
-5.84985 -11.2766 -2.34367
-6.45404 -11.8734 -2.50468
-6.22038 -11.5658 -2.2184
-5.2798 -11.7688 -2.38613
-8.26584 -13.8175 -2.45265
-7.2341 -13.3196 -1.46126
-6.14622 -11.3814 -2.47783
-6.46004 -11.6394 -2.55098
-8.2859 -12.9861 -2.12992
-6.16998 -12.1469 -1.9248
-8.34383 -13.0176 -2.29598
-8.12479 -13.0439 -1.75771
-8.0007 -12.8438 -1.93827
-6.51665 -11.6688 -2.38711
-7.69487 -12.5751 -2.53621
-7.85716 -12.6663 -2.29957
-7.72037 -13.5452 -1.50018
-8.41846 -13.2097 -1.94768
-5.67213 -11.5186 -2.20945
-5.476 -11.4716 -2.30977
-6.29192 -11.551 -2.6382
-6.03867 -11.5718 -1.95858
-6.63702 -11.7754 -2.143
-8.15283 -13.9818 -2.52518
-7.47325 -12.7631 -1.48401
-6.61421 -11.7712 -2.05445
-7.94226 -13.2403 -1.47435
-8.44643 -13.041 -2.62967
-7.14139 -12.1585 -2.52563
-6.45546 -11.6522 -2.29534
-6.90123 -11.9607 -2.34221
-6.33397 -11.6497 -2.44098
-6.23836 -11.4953 -2.23283
-8.34576 -13.6 -1.995
-8.21767 -13.0451 -1.8928
-7.66646 -13.133 -1.45182
-7.70731 -12.5756 -2.50322
-7.95816 -12.7939 -1.99107
-7.87538 -12.7037 -2.50913
-6.67159 -11.9489 -1.79837
-5.64752 -11.8439 -2.00721
-7.53735 -12.5758 -1.81874
-6.74677 -12.7569 -1.46378
-5.76303 -11.3019 -2.52897
-7.9593 -13.3665 -1.56421
-6.74818 -11.8713 -2.40285
-8.13487 -13.8375 -1.8908
-5.94759 -11.312 -2.44612
-5.8924 -11.3717 -2.19004
-7.51808 -12.4868 -1.93933
-8.3437 -13.1584 -1.89149
-7.83324 -13.1374 -1.45233
-8.50282 -13.1462 -2.44844
-6.88042 -11.944 -2.31721
-7.36559 -13.5162 -1.48627
-6.69069 -11.8694 -1.95647
-8.51613 -13.4576 -2.3574
-7.13788 -13.2532 -1.46369
-7.38992 -12.3766 -1.95068
-6.54129 -11.7023 -2.39257
-5.32155 -11.8481 -2.11995
-6.17961 -12.1936 -1.86583
-7.88405 -12.8473 -1.84455
-7.72313 -12.5793 -2.0669
-6.15727 -11.4186 -2.14762
-8.22481 -13.2184 -1.70817
-6.63548 -11.7944 -2.48223
-7.58635 -13.7768 -1.53786
-5.29044 -11.8218 -2.1982
-6.56313 -11.6675 -2.59029
-6.26831 -11.6534 -2.22191
-7.82443 -13.0374 -1.48519
-6.81248 -13.4925 -1.5056
-7.57375 -13.5183 -1.46702
-8.18475 -13.849 -1.9618
-8.5148 -13.4055 -2.43118
-6.29126 -11.465 -2.46811
-6.05006 -11.431 -2.42087
-6.21884 -11.8058 -1.91091
-5.9418 -11.5988 -1.97875
-7.93205 -12.7234 -2.42487
-7.53419 -12.5501 -1.88353
-8.16397 -12.9298 -2.0583
-8.24055 -13.903 -2.24016
-6.23232 -11.5325 -2.21792
-8.14738 -13.1994 -1.61707
-7.31227 -13.9282 -1.90873
-5.57492 -11.9563 -2.01142
-6.793 -11.9071 -2.04246
-8.0891 -12.946 -2.25424
-8.19597 -12.9109 -2.09393
-5.66325 -12.7553 -2.04867
-7.33745 -13.1143 -1.45283
-7.68015 -12.5855 -2.41713
-7.92377 -12.7176 -2.30608
-7.51622 -13.3663 -1.47135
-6.02576 -11.3437 -2.41773
-6.44232 -11.6184 -2.34206
-8.25531 -12.9576 -2.4943
-6.6178 -11.7533 -2.45093
-6.60742 -11.7517 -2.50073
-7.90584 -12.7231 -2.45178
-7.22319 -12.2371 -1.98623
-8.40323 -13.3495 -1.86804
-8.29132 -13.0173 -2.39255
-7.22435 -12.8123 -1.43172
-8.23463 -13.7755 -1.96293
-5.86087 -11.2701 -2.29522
-6.45383 -11.6413 -2.49614
-8.51866 -13.3757 -2.53287
-5.9463 -11.5055 -1.99702
-8.30208 -12.9565 -2.6973
-8.39691 -13.0928 -2.13817
-6.43216 -11.7343 -2.29784
-7.92339 -12.7453 -2.09249
-5.9646 -11.5186 -2.39479
-6.21089 -11.4627 -2.09792
-6.24648 -11.6489 -1.93367
-8.58896 -13.3526 -2.24546
-5.27597 -12.15 -2.08828
-7.50865 -13.5237 -1.48306
-5.69876 -11.9826 -1.96732
-7.51033 -12.4221 -2.50527
-7.14154 -12.1624 -2.04395
-7.33565 -13.9248 -1.87606
-8.28401 -12.9575 -2.73883
-8.11461 -13.9607 -2.04084
-6.58981 -11.8115 -1.90005
-7.28912 -12.2713 -2.52557
-7.52641 -12.4195 -2.20868
-5.86462 -11.8637 -1.95782
-8.53986 -13.1767 -2.31993
-6.24034 -11.869 -2.28787
-6.92618 -12.0336 -1.97507
-8.44099 -13.5913 -2.38187
-5.7075 -11.8485 -1.99532
-8.04356 -12.7737 -2.19521
-5.60977 -11.4834 -2.22739
-5.71619 -11.4182 -2.08661
-5.68588 -12.1411 -1.9752
-5.31584 -11.8956 -2.11173
-5.95244 -11.3741 -2.07421
-6.5153 -11.6842 -2.47845
-7.49414 -12.69 -1.57571
-8.43892 -13.2072 -1.98209
-5.64781 -12.5409 -1.96886
-7.9622 -12.7847 -2.43915
-6.94777 -13.5736 -1.50646
-8.16029 -13.8239 -1.86203
-8.50966 -13.1455 -2.29982
-6.67279 -11.8429 -1.99184
-8.29359 -12.9155 -2.74459
-8.44551 -13.0677 -2.20446
-7.60092 -12.5556 -1.99608
-5.54004 -11.4883 -2.23515
-5.79655 -12.0993 -1.96095
-8.20682 -12.9556 -2.24602
-8.15666 -12.925 -2.42899
-8.50264 -13.4384 -2.3948
-7.56754 -12.5034 -2.534
-6.29654 -11.5086 -2.10276
-7.80043 -12.6189 -2.19131
-5.55943 -11.451 -2.2431
-8.56412 -13.2423 -2.25194
-5.91599 -11.6094 -2.3761
-7.59703 -12.5074 -2.05401
-6.7003 -12.9069 -1.4669
-7.53903 -12.4295 -2.26754
-8.22148 -13.8217 -2.05862
-6.34677 -11.5097 -2.49244
-5.26866 -11.8135 -2.24927
-7.09547 -12.1356 -1.97325
-8.34373 -13.0474 -2.53868
-6.80922 -11.9595 -1.95076
-5.8484 -11.9037 -1.9562
-5.23039 -11.9272 -2.18994
-6.70441 -11.8585 -2.49709
-7.40083 -12.3638 -2.39911
-6.15157 -11.7178 -2.25056
-8.22891 -13.8672 -2.46216
-7.27156 -12.3655 -2.59755
-7.05858 -12.2025 -1.85005
-7.87524 -13.0623 -1.59268
-7.12129 -12.1204 -2.35149
-6.32584 -11.5089 -2.51396
-6.0282 -11.3891 -2.10271
-7.96852 -12.8301 -1.90843
-6.22145 -11.4802 -2.26522
-5.80566 -12.1634 -1.94749
-5.84865 -11.5495 -2.00504
-8.08582 -12.7778 -2.40429
-8.43427 -13.4 -1.92646
-6.44058 -11.6681 -1.99749
-5.54999 -11.5025 -2.50621
-8.23993 -13.0476 -2.64147
-7.10989 -13.9569 -2.10305
-8.3187 -13.0478 -2.30012
-8.44809 -13.3915 -2.09438
-6.08678 -11.3826 -2.43098
-7.74374 -13.2151 -1.45982
-7.46324 -12.9682 -1.43025
-6.34111 -11.5233 -2.08307
-5.48399 -11.4664 -2.33345
-8.20157 -12.8627 -2.70081
-7.49669 -12.4362 -2.03589
-5.51341 -11.9709 -2.02993
-6.4794 -11.6132 -2.45574
-6.89896 -12.0017 -2.49266
-7.34004 -13.014 -1.43614
-8.1599 -13.9925 -2.23491
-6.19278 -11.4076 -2.3908
-6.84828 -11.9965 -2.58098
-8.0016 -13.3029 -1.49228
-7.6741 -13.5473 -1.50362
-5.92651 -11.6347 -2.45111
-7.45322 -13.9443 -1.9686
-6.00999 -11.5511 -2.33815
-8.02632 -13.257 -1.49133
-6.6123 -12.6855 -1.49557
-5.521 -11.4128 -2.29161
-8.00487 -13.1205 -1.55525
-8.33345 -13.0916 -1.99564
-7.07648 -13.0746 -1.44187
-8.52147 -13.1755 -2.49509
-8.42296 -13.2559 -1.89657
-7.46498 -12.4125 -2.05086
-7.95009 -13.3452 -1.46928
-7.9543 -14.1418 -2.00351
-8.4825 -13.2273 -2.00412
-5.47984 -12.5562 -2.02628
-7.49756 -12.4106 -2.34097
-6.01714 -11.3325 -2.4416
-8.11989 -12.8936 -2.40722
-8.1786 -13.9431 -2.46706
-6.07315 -12.4093 -1.86966
-6.67754 -11.8355 -2.02367
-6.25397 -11.6005 -1.93888
-7.22331 -12.6018 -1.46628
-5.7115 -11.9494 -1.9699
-7.74898 -12.8323 -1.7714
-6.3262 -11.6528 -2.64482
-7.72733 -13.364 -1.45807
-8.07417 -13.2413 -1.49946
-5.85333 -11.3572 -2.19069
-6.18857 -11.3601 -2.44878
-7.56703 -12.4689 -2.35616
-7.39732 -12.7516 -1.44357
-5.74609 -11.6029 -2.0147
-8.00049 -12.8673 -1.89431
-8.04298 -12.8076 -2.57871
-5.50902 -11.9105 -2.03652
-8.14369 -13.8542 -1.86488
-6.92033 -12.0316 -2.47612
-7.56569 -12.4951 -2.40568
-6.0024 -12.403 -1.91007
-5.71172 -11.4577 -2.06126
-7.27385 -12.3025 -1.9481
-7.65575 -12.9123 -1.476
-8.2513 -13.2103 -1.70724
-8.57243 -13.3778 -2.23431
-5.88557 -11.3546 -2.13175
-7.85349 -14.3438 -2.26121
-8.38611 -13.3929 -1.86558
-7.5609 -12.6065 -1.79604
-8.16711 -12.8745 -2.73186
-6.39644 -11.7082 -1.9102
-6.79089 -12.709 -1.45664
-7.81281 -14.3212 -2.22168
-7.57248 -13.3224 -1.46564
-6.01262 -11.7988 -1.95415
-8.20193 -13.0181 -1.91553
-5.50299 -11.4543 -2.28038
-6.46335 -11.6114 -2.25929
-7.63002 -14.2281 -1.92289
-8.41298 -13.1589 -2.59735
-6.22632 -11.5523 -2.64484
-5.77783 -11.3611 -2.45597
-6.52809 -11.7072 -2.44138
-7.7596 -13.1542 -1.44886
-5.72737 -11.3142 -2.25216
-7.6689 -12.748 -1.70375
-7.39828 -12.6506 -1.50742
-6.95924 -12.5048 -1.44755
-7.83617 -12.9305 -2.40956
-7.18839 -12.1631 -2.22868
-8.21538 -13.8931 -2.45805
-7.13499 -12.8472 -1.44825
-8.15268 -13.1077 -2.24388
-5.78844 -12.212 -1.94875
-7.30351 -13.2756 -1.47203
-7.0636 -12.071 -2.37348
-7.24078 -12.7371 -1.41711
-6.88545 -11.9668 -2.37301
-7.95984 -12.7417 -2.2464
-5.7307 -11.3308 -2.23415
-5.49722 -11.9943 -2.02979
-7.80388 -12.6985 -2.58429
-7.63684 -13.9941 -1.7172
-8.2587 -13.1973 -1.73253
-7.40315 -12.506 -1.81476
-6.17525 -11.5787 -1.96338
-5.61809 -11.6451 -2.27757
-7.65753 -12.6147 -1.84576
-8.24693 -13.0604 -1.88807
-5.24011 -11.7849 -2.32508
-7.28407 -12.4111 -1.82695
-5.75299 -12.3471 -1.95171
-8.52467 -13.1305 -2.16063
-5.71878 -11.4696 -2.49716
-5.65024 -12.4274 -1.96486
-7.37091 -12.6724 -1.46069
-5.96742 -11.2804 -2.29905
-5.30911 -11.7519 -2.57658
-7.535 -12.6632 -1.73363
-6.2012 -11.4965 -2.04327
-7.03874 -12.9024 -1.43897
-7.9192 -14.2637 -2.24099
-7.52892 -12.5419 -1.89879
-7.24898 -13.7514 -1.51376
-6.29836 -11.5346 -2.3884
-8.47566 -13.3664 -2.00736
-6.41275 -11.6132 -2.25137
-7.37689 -12.3351 -2.04437
-8.47469 -13.2538 -1.98254
-5.71597 -11.4312 -2.07599
-8.31134 -13.6747 -2.0266
-8.46671 -13.4988 -2.44764
-8.38487 -13.4017 -1.88737
-8.43755 -13.1183 -2.15797
-7.94382 -13.436 -1.49407
-8.25691 -13.8027 -2.33138
-7.28561 -12.8976 -1.43258
-6.66658 -12.6928 -1.48232
-8.25005 -12.9203 -2.74588
-6.36328 -13.0124 -1.54225
-7.03438 -12.0755 -2.50387
-8.18404 -12.9183 -2.6586
-8.36368 -13.2393 -1.8233
-8.26553 -12.9497 -2.69511
-7.14967 -12.1529 -2.34465
-8.4951 -13.104 -2.50394
-6.0587 -11.6014 -1.97422
-6.95546 -12.0017 -2.24452
-6.79971 -11.8915 -2.34128
-7.79616 -13.0983 -1.4454
-6.75262 -11.9611 -1.79651
-6.88388 -12.2738 -1.55633
-7.97758 -12.7508 -2.21986
-6.73465 -12.0318 -1.72587
-7.91415 -13.0443 -1.62456
-8.19563 -13.4105 -1.76924
-6.07803 -12.3919 -1.8827
-7.96715 -13.007 -1.80231
-6.5177 -11.663 -2.15353
-7.35747 -12.8506 -1.42213
-6.57483 -12.8496 -1.49267
-6.07976 -11.9607 -1.90012
-7.69685 -13.6066 -1.49397
-7.79149 -12.6636 -2.44353
-8.34254 -13.6066 -1.9659
-5.60921 -11.5081 -2.10889
-6.69832 -11.8245 -2.39171
-6.73242 -12.7218 -1.46628
-6.90463 -12.0155 -1.99579
-7.78409 -12.7265 -1.8051
-8.20619 -13.8152 -1.96452
-5.77158 -11.8125 -1.96722
-7.32727 -12.3103 -2.40189
-6.04359 -12.3094 -1.94488
-8.07417 -12.8364 -2.34006
-8.28914 -13.742 -2.11237
-7.2419 -13.7155 -1.51655
-8.48749 -13.3088 -2.04789
-5.71432 -11.4016 -2.41571
-6.73662 -11.8337 -1.89822
-7.83249 -13.056 -1.48317
-5.80858 -11.314 -2.41495
-7.46074 -13.9266 -1.98009
-7.15062 -12.7094 -1.43273
-6.07445 -12.2665 -1.9432
-5.89706 -12.2941 -1.9239
-5.60364 -11.9115 -2.01007
-8.36246 -13.6552 -2.17236
-8.09807 -12.9649 -1.78709
-6.01675 -11.9106 -1.93446
-6.78557 -12.1201 -1.64874
-7.74089 -12.5669 -2.15787
-7.85019 -12.662 -2.14772
-6.04262 -11.8925 -1.92502
-7.40532 -12.4624 -1.84547
-5.23503 -11.9362 -2.17461
-8.2845 -13.5318 -1.86674
-6.94594 -12.687 -1.45111
-7.18602 -12.2156 -2.52976
-7.46114 -12.5825 -1.68014
-7.27307 -12.2361 -2.1777
-7.26093 -12.6443 -1.4536
-7.58618 -13.8871 -1.60184
-6.85558 -11.9378 -2.229
-8.14319 -13.0639 -1.74969
-6.07909 -11.6734 -1.95396
-7.71838 -14.2392 -1.9291
-6.94501 -13.0432 -1.45234
-7.69157 -12.5849 -2.54026
-5.72595 -11.4328 -2.18346
-8.13448 -13.0487 -2.65974
-7.85501 -13.2871 -1.48269
-7.3596 -12.7109 -1.44417
-6.50694 -11.6136 -2.55307
-8.43163 -13.1771 -2.0107
-7.11121 -12.4996 -1.48475
-7.10829 -13.2487 -1.46791
-6.38098 -11.5639 -2.53326
-8.11528 -12.8606 -2.54903
-8.00305 -13.0477 -1.74403
-8.41428 -13.0572 -2.24178
-6.25539 -11.6109 -2.651
-6.39459 -11.6842 -1.92343
-8.51103 -13.3088 -2.09433
-7.02432 -12.6769 -1.43591
-6.09232 -11.605 -1.95948
-6.00601 -12.0616 -1.92133
-6.89583 -12.6141 -1.45715
-8.3515 -13.2444 -1.80007
-6.81734 -12.2502 -1.55594
-6.45891 -11.611 -2.14198
-6.87535 -11.98 -2.51997
-5.91594 -11.3735 -2.05605
-5.76878 -12.6783 -1.94551
-7.38902 -12.3201 -2.33083
-7.52309 -13.2214 -1.45118
-5.46655 -11.7577 -2.07616
-8.40385 -13.2688 -2.40146
-8.4276 -13.4722 -2.00266
-6.08632 -11.7313 -2.27843
-7.85965 -14.3655 -2.41907
-6.44501 -11.8448 -1.87893
-8.04514 -14.095 -2.21739
-6.5601 -11.886 -1.87968
-7.69533 -13.4432 -1.48898
-7.66437 -12.5697 -2.43533
-6.8577 -12.3492 -1.48767
-6.80127 -13.0566 -1.47263
-7.46815 -13.2869 -1.45746
-7.94823 -13.0899 -1.52534
-8.03592 -12.788 -2.47667
-5.69316 -11.3203 -2.21342
-7.99597 -12.9744 -1.72561
-5.71822 -12.4005 -1.95937
-7.40034 -12.4483 -1.89132
-6.97588 -12.1027 -2.58523
-8.22 -12.9244 -2.24914
-7.15956 -12.7965 -1.44802
-7.925 -13.0345 -1.57055
-6.24028 -11.4999 -2.55717
-7.71135 -12.9182 -1.493
-7.45378 -12.4939 -2.58355
-6.34459 -11.5137 -2.5491
-7.27332 -12.2356 -2.29734
-8.3293 -13.192 -1.82875
-5.71812 -11.8019 -1.99834
-7.30443 -13.095 -1.44112
-6.29482 -11.5471 -2.20688
-5.55827 -11.4777 -2.51865
-5.76846 -12.6739 -1.99445
-8.433 -13.55 -2.16995
-8.4024 -13.1459 -2.09566
-6.27841 -11.4122 -2.69051
-5.76985 -11.317 -2.50319
-6.64159 -11.7766 -2.49669
-8.21797 -13.8569 -2.30849
-8.50931 -13.2071 -2.14405
-6.62776 -11.7868 -2.1414
-8.50517 -13.4561 -2.43025
-8.17818 -13.9168 -2.01723
-5.26398 -12.2055 -2.09026
-7.33539 -13.2011 -1.45424
-5.93886 -11.6272 -2.43157
-7.7205 -13.7559 -1.59731
-7.24506 -12.2191 -2.09407
-8.29736 -13.6054 -1.90526
-6.67058 -11.8169 -2.55394
-6.53415 -11.6722 -2.22823
-6.116 -11.5407 -2.27776
-6.06612 -11.3871 -2.12893
-8.21083 -13.8655 -2.19374
-7.47339 -12.379 -2.11123
-5.81415 -11.551 -2.02835
-8.01678 -13.106 -1.58495
-7.96722 -14.1129 -2.01506
-6.68243 -13.3273 -1.5116
-8.17589 -13.0426 -2.69724
-7.75021 -13.5544 -1.48409
-7.88138 -12.9559 -2.33735
-6.74442 -11.8441 -1.85621
-5.84796 -11.9667 -1.95454
-7.95609 -12.753 -2.09419
-7.88728 -12.7082 -2.52991
-6.04219 -11.4482 -2.0255
-8.36186 -13.6563 -2.07529
-8.02663 -14.0565 -1.98378
-7.66949 -12.5499 -2.14948
-8.01463 -13.0693 -1.6069
-6.11134 -11.5508 -2.48227
-7.67039 -12.5643 -2.40201
-8.2216 -13.0189 -2.22436
-5.96204 -11.9876 -1.93114
-8.00233 -13.358 -1.53199
-6.04634 -11.3476 -2.45367
-8.00957 -12.8015 -2.50106
-7.85947 -12.8581 -2.46341
-6.25571 -11.455 -2.62543
-6.82372 -12.564 -1.46078
-8.26344 -12.9723 -2.66446
-8.41971 -13.0392 -2.66382
-6.00137 -11.6172 -1.96276
-8.10477 -13.0274 -1.75681
-8.10124 -14.0469 -2.48738
-5.2187 -12.4219 -2.10524
-6.80878 -12.5406 -1.47545
-6.89622 -13.2704 -1.48425
-7.45625 -12.6104 -1.64746
-7.51881 -12.7959 -1.48792
-8.32285 -13.2859 -2.39624
-7.06583 -12.0765 -2.21437
-7.63045 -13.6762 -1.49674
-5.87628 -11.2997 -2.46694
-7.56792 -13.7405 -1.50251
-5.54802 -11.7544 -2.0554
-8.35965 -13.6754 -2.44424
-6.2691 -11.6321 -2.21308
-7.24174 -12.268 -1.91108
-7.49742 -12.4142 -2.52445
-6.04478 -11.3716 -2.14557
-6.07272 -11.3572 -2.34866
-6.53897 -11.6664 -2.40476
-5.85919 -11.2901 -2.24775
-5.54758 -11.4696 -2.53783
-6.48744 -11.6721 -2.05309
-6.83595 -12.6524 -1.4546
-8.08185 -12.869 -1.98777
-5.88844 -11.2845 -2.24368
-7.13916 -12.1263 -2.32371
-8.11063 -12.9714 -1.85843
-6.60268 -11.8258 -1.86144
-6.90517 -11.9832 -2.32868
-6.63399 -12.6198 -1.4887
-5.97523 -11.7574 -1.93808
-5.98128 -11.6196 -2.28651
-6.05763 -11.3631 -2.19862
-8.34718 -13.1789 -1.86234
-6.96928 -12.0188 -2.15013
-8.37227 -13.0352 -2.59185
-8.29573 -13.7539 -2.35269
-6.66946 -13.013 -1.4916
-5.73488 -12.1416 -1.97257
-7.53627 -12.5136 -1.89882
-5.72075 -12.7633 -1.97643
-6.66499 -11.8142 -2.04565
-8.02525 -14.0801 -2.02614
-7.40508 -12.3694 -2.51073
-8.06062 -12.8994 -1.88663
-7.32047 -13.9442 -1.88845
-5.9628 -11.6344 -2.2947
-8.46211 -13.5086 -2.19926
-6.05159 -12.0406 -1.89777
-8.13869 -13.0164 -2.67713
-8.25661 -13.8162 -2.03071
-8.0394 -12.8654 -1.8978
-5.32707 -11.7852 -2.51912
-6.45169 -11.6351 -2.34246
-8.44426 -13.4497 -2.00246
-7.41589 -12.3264 -2.25787
-8.35985 -13.06 -2.49698
-7.91144 -13.1649 -1.46246
-8.5345 -13.1691 -2.48545
-6.50458 -11.6543 -2.50182
-6.87399 -11.9001 -1.85047
-7.04297 -12.1238 -1.94724
-6.90736 -12.0067 -2.54456
-7.50247 -12.6765 -1.78708
-8.00092 -12.7949 -2.04168
-7.36845 -12.4052 -2.58176
-5.90544 -12.4289 -1.95801
-6.81197 -12.2022 -1.59495
-7.0062 -12.0482 -2.13961
-6.56886 -11.7274 -2.00783
-5.91997 -11.9091 -1.94007
-8.45172 -13.248 -1.94082
-6.67914 -12.5658 -1.48706
-7.23497 -12.2401 -2.07549
-5.86453 -11.6998 -1.98692
-8.21982 -13.2321 -1.69808
-6.59346 -11.8414 -1.88511
-8.09947 -12.9543 -2.495
-6.244 -11.7018 -1.91583
-6.1024 -11.391 -2.39421
-7.97557 -13.5367 -1.86363
-7.46071 -12.3893 -2.12817
-5.75568 -11.4169 -2.08496
-7.64192 -12.5865 -1.92739
-8.00156 -13.0329 -2.24584
-5.91806 -11.4466 -2.62358
-7.55275 -12.8534 -1.44698
-7.582 -12.4685 -2.39634
-8.49832 -13.4993 -2.19862
-5.95531 -12.2907 -1.90636
-7.96748 -13.3667 -1.48924
-8.45004 -13.5453 -2.42935
-7.55623 -14.0617 -1.72781
-7.93851 -14.2531 -2.23792
-7.73984 -12.6125 -2.04344
-8.60152 -13.2613 -2.2068
-7.02063 -12.0919 -2.48449
-5.241 -11.8752 -2.5696
-8.16957 -13.4045 -1.80326
-6.45586 -11.5959 -2.64254
-6.7516 -11.9044 -1.8284
-5.54486 -11.707 -2.06098
-6.74844 -12.0562 -1.69717
-5.99287 -11.4571 -2.45613
-6.78679 -12.5069 -1.46709
-5.71049 -11.3161 -2.28793
-6.17671 -11.6437 -2.4337
-6.14703 -11.7688 -1.90691
-5.9864 -12.3362 -1.90244
-6.01134 -12.1418 -1.90372
-7.75336 -12.7507 -1.84604
-6.21922 -11.4162 -2.60901
-7.88132 -12.6768 -2.28101
-5.23877 -11.8958 -2.19474
-7.48506 -12.5906 -1.65237
-6.34303 -11.5573 -2.04507
-6.00681 -11.305 -2.24409
-7.81676 -13.145 -1.45778
-7.4055 -14.0259 -1.8497
-5.67668 -11.3927 -2.4089
-5.31062 -11.799 -2.55163
-7.29343 -13.381 -1.46533
-6.79179 -12.1691 -1.61234
-8.38745 -13.6535 -2.20839
-6.44804 -11.9068 -2.49701
-6.87114 -11.7664 -1.83729
-7.29991 -12.2778 -1.96885
-6.11224 -11.6878 -2.2732
-7.05544 -12.0979 -2.04608
-5.76273 -11.8189 -1.9937
-8.02184 -14.1222 -2.22881
-8.56255 -13.1942 -2.21424
-7.97095 -13.0336 -1.7653
-8.39378 -13.5536 -2.46871
-5.82361 -12.5813 -1.96236
-6.79195 -11.9219 -2.0044
-7.12344 -12.1566 -2.05796
-7.76547 -12.7147 -1.63835
-6.8026 -11.9246 -2.53733
-6.64468 -11.7832 -2.1259
-7.96925 -12.7904 -2.03166
-7.76205 -12.5955 -2.24643
-7.64081 -13.0975 -1.44627
-6.40704 -11.5863 -2.1307
-5.54016 -11.5323 -2.19039
-7.22661 -12.8372 -1.43634
-7.82661 -12.65 -2.54303
-8.58923 -13.2485 -2.16155
-8.46059 -13.063 -2.59514
-5.6794 -11.4556 -2.21766
-6.15079 -11.6972 -1.92593
-8.0276 -13.0026 -2.50704
-8.59331 -13.2935 -2.1816
-5.88445 -11.388 -2.13569
-6.44447 -11.6905 -2.28064
-6.83853 -11.9225 -2.20317
-6.33926 -11.5532 -2.29025
-6.31252 -11.6513 -2.22812
-7.66074 -13.257 -1.45217
-7.51407 -12.5751 -1.8142
-5.55283 -11.6093 -2.09207
-7.91521 -13.0594 -1.541
-7.46141 -12.5641 -1.69481
-5.88074 -12.1573 -1.93359
-6.26465 -11.4827 -2.1293
-7.50407 -12.6654 -1.55683
-8.43649 -13.3406 -1.92181
-7.19725 -12.1931 -2.50344
-7.60327 -13.3389 -1.46451
-5.55287 -11.5088 -2.16022
-8.47404 -13.145 -2.48589
-5.74164 -11.8889 -1.96205
-5.45894 -12.3108 -2.02214
-7.11162 -13.7067 -1.50729
-7.16463 -12.2197 -1.94379
-7.10458 -12.8376 -1.43111
-5.67891 -11.7909 -2.00962
-7.81148 -13.0257 -1.46373
-8.47624 -13.0694 -2.5635
-6.76924 -11.952 -1.93867
-7.52565 -12.8989 -1.43501
-8.28947 -13.7679 -2.04289
-8.29445 -13.0525 -2.62764
-6.30809 -11.7116 -1.9114
-8.36821 -13.5618 -1.97945
-5.45268 -12.1496 -2.04856
-8.01968 -13.3649 -1.50738
-7.50551 -12.7999 -1.45948
-7.75911 -13.137 -2.70692
-6.46501 -11.6558 -2.09505
-5.65848 -11.5464 -2.2448
-6.60501 -12.6222 -1.52519
-8.07687 -12.8139 -2.64391
-8.05032 -12.9489 -2.26883
-7.46292 -12.6427 -1.63254
-8.23158 -13.8372 -2.3274
-8.19537 -13.0445 -2.22605
-8.55962 -13.3532 -2.15694
-8.15092 -12.9023 -2.63801
-8.44847 -13.2188 -2.04219
-8.23972 -12.9167 -2.54515
-6.24358 -11.6847 -1.92419
-8.31465 -13.711 -2.12165
-6.86391 -12.2139 -1.60025
-6.41977 -11.6596 -2.23759
-6.72078 -11.8363 -2.35569
-6.22182 -11.4945 -2.40759
-5.80066 -11.2968 -2.33683
-7.86215 -12.7063 -2.54002
-5.91341 -11.5575 -2.00959
-8.27928 -13.5679 -1.86203
-8.34097 -13.2672 -2.36986
-7.13483 -12.132 -2.17839
-7.78616 -12.7531 -1.79391
-8.18881 -12.9567 -2.34414
-7.99905 -13.0092 -1.70075
-6.28345 -11.4664 -2.48466
-5.63115 -12.0709 -1.9963
-7.11844 -12.1407 -2.09294
-7.26065 -12.7078 -1.43356
-7.50636 -13.9348 -1.54831
-6.72289 -11.8379 -2.19569
-7.58662 -12.955 -1.43036
-7.09895 -13.6617 -1.51368
-5.65503 -12.3261 -1.9845
-7.60361 -13.8202 -1.54053
-7.84526 -12.657 -2.49023
-5.74855 -11.6037 -2.02783
-6.19637 -11.3983 -2.55757
-7.03842 -12.1507 -2.58106
-8.58669 -13.2122 -2.19093
-8.12671 -13.1725 -1.61876
-5.75165 -11.5095 -2.0449
-6.6525 -11.8189 -1.95985
-6.06429 -11.6084 -2.22787
-6.71013 -11.9461 -1.8341
-8.4088 -13.1519 -2.04804
-8.22653 -13.1945 -1.73272
-5.90797 -11.4997 -2.01231
-6.23331 -11.5106 -2.02502
-8.07924 -12.8855 -1.97646
-6.25731 -11.8665 -1.89212
-8.46036 -13.4075 -2.05035
-6.74017 -11.8418 -2.19484
-6.63637 -11.7558 -2.43837
-5.67235 -12.4943 -1.9789
-6.02989 -11.6984 -2.31075
-7.81087 -12.6647 -1.99364
-7.30461 -13.9007 -1.94658
-5.24088 -11.8596 -2.58073
-8.60051 -13.3298 -2.25872
-8.545 -13.3677 -2.18111
-6.26923 -11.6734 -1.91752
-6.3553 -11.593 -2.04747
-6.20567 -12.0162 -1.89165
-6.0565 -12.2019 -1.90199
-6.39064 -11.5699 -2.49279
-6.25746 -11.8 -1.90289
-7.87109 -13.2071 -1.46306
-8.59894 -13.2638 -2.44674
-7.60982 -13.2698 -1.44868
-6.24162 -11.5415 -1.99249
-8.26427 -12.9883 -2.68094
-8.38524 -13.5435 -2.00137
-7.20006 -12.1736 -2.19769
-6.5928 -11.7198 -2.25049
-6.98296 -12.0283 -2.14967
-6.51823 -11.6877 -2.14024
-5.68709 -11.3417 -2.24002
-6.20015 -11.9553 -1.88953
-7.09973 -13.1035 -1.44801
-6.19299 -12.0883 -1.90905
-7.26802 -12.9312 -1.43947
-6.16322 -11.7201 -1.91042
-8.1133 -12.9539 -2.44983
-7.16402 -12.239 -1.92673
-8.56827 -13.307 -2.45152
-7.79657 -12.6193 -2.24585
-6.68774 -12.6656 -1.48377
-5.50275 -12.0866 -2.02795
-5.3373 -11.7344 -2.1875
-6.89334 -12.1264 -2.61958
-5.6516 -11.6265 -2.21756
-8.23003 -13.1393 -1.77059
-5.71819 -11.3895 -2.52813
-5.71603 -11.408 -2.49399
-5.53868 -11.5515 -2.5149
-5.31171 -11.7657 -2.56413
-5.59654 -11.4527 -2.43891
-5.59286 -11.461 -2.4181
-5.61986 -11.4046 -2.37547
-5.65462 -11.3668 -2.35595
-5.63753 -11.3936 -2.33749
-5.64481 -11.3523 -2.30315
-5.6579 -11.3853 -2.29223
-5.17418 -11.888 -2.4238
-5.21765 -11.8195 -2.35889
-5.69583 -11.4072 -2.2314
-5.6579 -11.4774 -2.25749
-5.27425 -11.7377 -2.27148
-5.50946 -11.5523 -2.20594
-5.66093 -11.5201 -2.23476
-5.52644 -11.545 -2.16479
-5.85703 -11.3983 -2.19054
-5.69493 -11.5058 -2.18317
-5.87273 -11.3635 -2.15357
-5.67854 -11.5444 -2.18548
-5.54652 -11.5467 -2.13742
-5.69377 -11.5194 -2.15972
-5.56313 -11.5677 -2.10494
-5.31711 -11.8048 -2.14827
-5.89732 -11.3579 -2.10178
-5.31679 -11.8386 -2.13423
-5.89378 -11.3889 -2.09104
-5.76476 -11.4547 -2.05916
-5.54678 -11.639 -2.08014
-5.54774 -11.6675 -2.06976
-5.30995 -11.9426 -2.10413
-5.91182 -11.4069 -2.03461
-5.30176 -11.9997 -2.0972
-5.75359 -11.5569 -2.03134
-5.29506 -12.0533 -2.08865
-5.55638 -11.8133 -2.03141
-5.28415 -12.1052 -2.08982
-5.75511 -11.6509 -2.01088
-5.53487 -11.8386 -2.03301
-5.73314 -11.7004 -2.01129
-5.24722 -12.2759 -2.09598
-5.91759 -11.6142 -1.98896
-5.71907 -11.759 -2.00659
-5.22833 -12.3513 -2.10414
-5.91051 -11.6577 -1.98367
-5.50325 -12.0504 -2.02248
-5.4986 -12.0879 -2.01878
-5.69284 -11.8991 -1.99747
-5.703 -11.9688 -1.99145
-5.46881 -12.2545 -2.02152
-5.69536 -12.0463 -1.98385
-5.68176 -12.129 -1.98741
-5.37657 -12.6683 -2.06733
-5.64894 -12.2656 -1.9815
-5.64766 -12.3933 -1.98008
-5.65147 -12.4948 -1.96752
-5.60847 -12.5914 -1.98906
-5.56413 -12.7539 -2.00974
-6.93376 -12.0432 -2.55388
-7.0134 -13.0539 -1.45592
-6.29306 -11.483 -2.23993
-6.20786 -11.5453 -2.22909
-8.06123 -12.8061 -2.14098
-7.36127 -13.4154 -1.46867
-6.30074 -11.5423 -2.08044
-7.10074 -13.9476 -2.12614
-8.3136 -13.1165 -1.91382
-5.7018 -11.4069 -2.60415
-5.88052 -11.3491 -2.58553
-5.91432 -11.2997 -2.53399
-6.0441 -11.3493 -2.53758
-5.8998 -11.3028 -2.48676
-5.76242 -11.3522 -2.49242
-6.40132 -11.516 -2.69427
-6.19585 -11.3582 -2.54263
-5.93237 -11.315 -2.48077
-6.05768 -11.3565 -2.49459
-6.3098 -11.5087 -2.64199
-6.2791 -11.515 -2.63427
-6.41313 -11.5522 -2.6461
-6.20506 -11.4054 -2.50051
-5.97484 -11.5919 -2.58954
-5.95845 -11.3096 -2.39369
-5.84459 -11.2873 -2.34901
-5.69098 -11.3315 -2.32077
-5.40474 -11.5944 -2.41412
-6.31294 -11.4966 -2.54542
-5.99544 -11.3148 -2.34414
-6.42494 -11.5739 -2.61674
-6.21507 -11.4429 -2.49223
-6.4109 -11.6087 -2.61418
-6.20937 -11.4491 -2.46548
-5.89503 -11.2495 -2.24092
-6.00687 -11.3062 -2.29176
-6.45212 -11.6142 -2.59396
-6.11935 -11.3937 -2.34621
-5.75313 -11.34 -2.22251
-6.35312 -11.519 -2.45608
-5.8942 -11.3083 -2.21298
-5.13554 -11.9192 -2.38634
-5.65393 -11.5254 -2.27621
-6.45999 -11.6061 -2.50942
-6.24356 -11.4568 -2.37229
-6.12787 -11.4133 -2.31551
-6.03075 -11.3307 -2.24022
-5.63771 -11.5734 -2.28066
-5.20549 -11.8378 -2.30164
-6.36775 -11.5403 -2.43739
-6.25313 -11.4585 -2.34787
-5.22591 -11.8026 -2.2849
-6.36455 -11.5496 -2.39677
-6.13725 -11.4456 -2.2896
-5.19652 -11.8867 -2.28562
-5.87628 -11.4378 -2.1866
-5.20952 -11.9064 -2.24587
-6.26428 -11.4879 -2.30684
-6.12254 -11.5111 -2.27256
-5.88214 -11.4399 -2.17259
-5.18642 -11.9468 -2.26431
-6.51065 -11.6547 -2.4405
-5.65739 -11.6316 -2.20205
-6.29054 -11.472 -2.25101
-5.89047 -11.4631 -2.14083
-6.37805 -11.5925 -2.34476
-6.09641 -11.6227 -2.28198
-6.40768 -11.5982 -2.34218
-6.17049 -11.4597 -2.19188
-6.40401 -11.5735 -2.28875
-6.19435 -11.4435 -2.145
-6.05664 -11.3989 -2.08807
-5.95061 -11.3745 -2.0612
-5.95285 -11.4024 -2.04478
-5.50545 -11.7071 -2.08282
-5.21886 -12.0083 -2.15793
-6.39224 -11.5637 -2.24939
-6.10799 -11.42 -2.09436
-6.29836 -11.5902 -2.21173
-5.95732 -11.4248 -2.01831
-5.5244 -11.7619 -2.06379
-5.20415 -12.0625 -2.1504
-6.09348 -11.4473 -2.03668
-5.95869 -11.4459 -2.00363
-5.19798 -12.0909 -2.14355
-6.24431 -11.7578 -2.25684
-5.5139 -11.797 -2.05415
-6.33273 -11.8871 -2.33585
-6.31656 -11.5602 -2.15027
-6.21442 -11.4868 -2.07855
-5.73999 -11.6451 -2.02106
-6.32698 -11.9247 -2.33477
-6.10378 -11.4654 -2.00491
-6.34448 -11.5498 -2.09019
-5.93529 -11.5641 -1.98806
-5.72867 -11.7032 -2.0101
-5.47623 -11.9219 -2.05145
-6.43181 -11.6621 -2.18653
-6.10063 -11.5075 -1.99026
-5.47028 -11.9527 -2.04414
-5.4651 -12.0063 -2.03671
-6.23668 -11.5191 -2.01365
-6.09975 -11.5555 -1.97629
-5.44154 -12.0606 -2.04083
-6.45833 -11.6403 -2.13235
-5.92038 -11.6563 -1.96938
-6.08539 -11.6025 -1.97559
-5.90709 -11.703 -1.97201
-5.90724 -11.7515 -1.96306
-5.6709 -11.9306 -1.99606
-5.38359 -12.2153 -2.05426
-6.57538 -11.7421 -2.17079
-6.25307 -11.5674 -1.95566
-6.10684 -11.6465 -1.95322
-5.65305 -11.959 -1.99971
-6.57149 -11.7756 -2.16932
-5.88945 -11.7986 -1.95756
-5.64395 -12.0255 -1.99628
-5.32343 -12.3754 -2.07507
-6.07564 -11.708 -1.9444
-5.61604 -12.1214 -1.99801
-6.60059 -11.7541 -2.09286
-6.38112 -11.6266 -1.9758
-6.05931 -11.7625 -1.93878
-5.6125 -12.1596 -1.98758
-6.49663 -11.6843 -2.02765
-5.59311 -12.21 -1.99399
-6.49966 -11.7021 -1.99516
-6.06654 -11.8128 -1.933
-5.85423 -12.0116 -1.94968
-5.57744 -12.2491 -1.99419
-6.04616 -11.8608 -1.93067
-5.54338 -12.3342 -1.99952
-6.24388 -11.7502 -1.90856
-6.50938 -11.7254 -1.96329
-6.01225 -11.9586 -1.92727
-6.213 -11.8498 -1.90516
-6.02405 -11.9961 -1.91471
-5.77492 -12.2555 -1.94672
-6.40981 -11.7575 -1.90372
-5.75426 -12.3153 -1.95073
-6.40804 -11.8032 -1.90014
-6.21404 -11.9083 -1.89178
-6.00456 -12.087 -1.91244
-5.98517 -12.1531 -1.92171
-6.53487 -11.7726 -1.91178
-5.96025 -12.2103 -1.91914
-5.70375 -12.5042 -1.97123
-6.55746 -11.8075 -1.90307
-5.96603 -12.2548 -1.91404
-5.69229 -12.5522 -1.9701
-5.66138 -12.6483 -1.98367
-6.65639 -11.844 -1.93643
-5.91078 -12.4419 -1.93852
-5.61629 -12.7803 -2.00745
-6.57106 -11.8413 -1.88658
-5.92009 -12.4469 -1.91998
-6.17618 -12.1683 -1.86243
-6.68639 -11.8965 -1.87166
-6.70393 -11.9095 -1.8571
-6.71825 -11.9608 -1.79794
-6.70461 -11.9763 -1.76276
-6.74138 -11.9678 -1.7354
-6.75468 -12.0073 -1.69813
-6.75531 -12.0914 -1.67979
-6.7699 -12.0698 -1.6521
-6.7534 -12.1111 -1.64833
-6.76683 -12.1924 -1.63063
-8.00626 -13.0146 -2.28041
-6.62271 -12.5866 -1.50025
-6.81581 -12.38 -1.48447
-6.60092 -12.6595 -1.50521
-6.34927 -13.0912 -1.54538
-6.79796 -12.4469 -1.47565
-6.61226 -12.7488 -1.48902
-6.80977 -12.501 -1.48142
-6.60326 -12.783 -1.48878
-6.79913 -12.6136 -1.47952
-6.56367 -13.0375 -1.50144
-6.76974 -12.8076 -1.4976
-6.62085 -12.8781 -1.433
-7.93956 -12.7689 -2.00996
-8.55719 -13.2075 -2.29768
-8.21095 -13.0883 -2.23575
-7.62369 -12.605 -1.89593
-6.95555 -12.0226 -2.39859
-6.85924 -13.0376 -1.45925
-6.51469 -11.7967 -2.41267
-6.95862 -12.0825 -1.92701
-7.32472 -12.6217 -1.47003
-6.19473 -11.4448 -2.70573
-6.20647 -11.4157 -2.68144
-5.85783 -11.2965 -2.52221
-5.54514 -11.527 -2.64046
-6.23624 -11.401 -2.63464
-5.86079 -11.3007 -2.50039
-5.68944 -11.3584 -2.50252
-6.33713 -11.49 -2.69257
-6.14305 -11.3634 -2.54126
-6.01295 -11.3346 -2.49281
-6.34679 -11.5125 -2.65233
-5.90257 -11.3052 -2.43788
-6.24013 -11.4502 -2.58769
-5.69267 -11.4057 -2.45467
-6.44998 -11.5928 -2.70761
-6.16124 -11.3618 -2.49535
-6.21449 -11.5398 -2.61698
-5.9088 -11.2947 -2.39118
-6.44737 -11.5623 -2.68459
-6.35069 -11.5433 -2.60299
-6.17198 -11.3922 -2.443
-6.05307 -11.3488 -2.39826
-5.95236 -11.299 -2.34681
-6.24773 -11.4631 -2.53599
-5.82161 -11.2896 -2.30458
-5.55653 -11.4364 -2.36806
-6.26097 -11.4731 -2.50286
-6.4957 -11.5939 -2.59414
-5.91489 -11.6107 -2.49486
-5.96977 -11.2974 -2.30281
-5.86215 -11.257 -2.249
-5.62621 -11.3704 -2.295
-6.36183 -11.5846 -2.56311
-6.17886 -11.4211 -2.41679
-5.65559 -11.3498 -2.25799
-6.29092 -11.4902 -2.44051
-5.92459 -11.6237 -2.46395
-6.20483 -11.4382 -2.34743
-5.86823 -11.299 -2.19983
-5.67247 -11.3666 -2.21179
-6.29691 -11.5142 -2.39831
-6.49188 -11.6418 -2.53326
-6.40138 -11.5813 -2.47317
-5.32683 -11.6438 -2.2862
-6.39372 -11.5979 -2.44293
-6.35234 -11.6735 -2.4846
-6.22313 -11.458 -2.29089
-5.32649 -11.6651 -2.2679
-6.57501 -11.8239 -2.61319
-6.30742 -11.7956 -2.53835
-6.2605 -11.6017 -2.39724
-5.33548 -11.6676 -2.24949
-6.60452 -11.7573 -2.54592
-5.59816 -11.5395 -2.20062
-5.28909 -11.7559 -2.25459
-6.20946 -12.0055 -2.61588
-6.24672 -11.4567 -2.24704
-6.14297 -11.4049 -2.19014
-6.01962 -11.3674 -2.14598
-6.30878 -11.8363 -2.50669
-6.42317 -11.6371 -2.38404
-6.28632 -11.6358 -2.3531
-5.31813 -11.746 -2.21147
-6.533 -11.7027 -2.43659
-6.04222 -11.3802 -2.10693
-6.74771 -11.8688 -2.54082
-5.34047 -11.7523 -2.16616
-6.6524 -11.8095 -2.44642
-6.16289 -11.4324 -2.13012
-6.76434 -11.8776 -2.51573
-6.34358 -11.5985 -2.23734
-6.21259 -11.5938 -2.21403
-6.1691 -11.4578 -2.09488
-6.04819 -11.4176 -2.05054
-6.7596 -11.8979 -2.49602
-6.55789 -11.7069 -2.34649
-5.91164 -11.4236 -2.01786
-6.65312 -11.8016 -2.39944
-6.35893 -11.6056 -2.21378
-6.86665 -11.9769 -2.54391
-6.58688 -11.7118 -2.28951
-6.35011 -11.6342 -2.21563
-5.65471 -11.612 -2.03539
-6.7738 -11.9079 -2.44955
-6.338 -11.9292 -2.37749
-6.31256 -11.7166 -2.2389
-6.17677 -11.4809 -2.05931
-6.05658 -11.4608 -2.00108
-5.64772 -11.6448 -2.04068
-6.68826 -11.8069 -2.34049
-5.61528 -11.6963 -2.03876
-6.79915 -11.9044 -2.40038
-6.50429 -11.65 -2.18705
-6.19286 -11.5078 -2.00724
-6.04697 -11.501 -1.98328
-6.60362 -11.74 -2.23531
-6.41499 -11.6059 -2.09579
-6.69991 -11.8107 -2.29386
-6.03764 -11.5416 -1.97197
-5.8389 -11.6399 -1.97966
-7.011 -12.0691 -2.50886
-6.90752 -12.0048 -2.44809
-5.82619 -11.6741 -1.97594
-6.61627 -11.7499 -2.19236
-6.30806 -11.5826 -2.02501
-5.82169 -11.6952 -1.96745
-7.10974 -12.196 -2.58634
-6.9207 -11.9953 -2.39807
-6.7139 -11.8201 -2.24577
-6.41515 -11.6214 -2.0657
-6.31761 -11.6049 -1.99039
-6.19638 -11.559 -1.95708
-5.80765 -11.7538 -1.98565
-7.12334 -12.1694 -2.55026
-6.81087 -11.899 -2.30167
-6.52469 -11.6987 -2.11214
-6.42088 -11.6422 -2.04464
-6.00832 -11.6585 -1.95473
-6.75153 -11.8496 -2.25081
-6.18718 -11.6063 -1.941
-7.1507 -12.1633 -2.49575
-7.02858 -12.0971 -2.45093
-6.9505 -12.0018 -2.34645
-6.8382 -11.9143 -2.28223
-6.53636 -11.7005 -2.08614
-6.45818 -11.6621 -2.04476
-5.9986 -11.6975 -1.93916
-5.7549 -11.8528 -1.96615
-7.04654 -12.1021 -2.44482
-6.31172 -11.609 -1.9533
-5.39185 -12.1799 -2.03946
-7.05763 -12.0927 -2.40937
-6.84195 -11.9251 -2.2462
-6.54843 -11.7153 -2.04996
-6.31517 -11.6491 -1.93438
-6.15807 -11.6525 -1.9366
-6.65059 -11.7936 -2.09303
-5.95737 -11.8064 -1.93504
-7.1662 -12.1758 -2.44521
-6.96133 -12.0095 -2.29141
-6.75232 -11.8586 -2.14456
-6.4482 -11.6817 -1.97703
-5.94444 -11.8671 -1.94678
-5.67651 -12.0333 -1.9684
-7.16661 -12.2104 -2.44453
-7.07082 -12.0865 -2.34877
-6.44946 -11.7016 -1.94718
-6.30698 -11.6929 -1.92756
-5.63997 -12.1064 -1.9781
-6.86284 -11.9442 -2.18933
-6.56387 -11.7563 -1.99504
-6.29611 -11.7533 -1.90969
-6.15198 -11.8064 -1.90799
-5.89714 -11.9565 -1.9413
-7.09062 -12.0927 -2.29706
-6.76418 -11.8736 -2.10486
-6.10898 -11.8556 -1.90788
-7.20035 -12.2099 -2.40003
-6.98503 -12.0234 -2.22807
-6.85965 -11.9467 -2.14828
-6.77232 -11.8842 -2.08557
-6.29524 -11.799 -1.90159
-5.86771 -12.0529 -1.939
-6.78481 -11.8941 -2.07837
-6.09975 -11.9095 -1.89799
-5.84058 -12.1034 -1.93258
-6.99133 -12.0193 -2.19402
-6.68906 -11.8507 -1.9902
-6.57381 -11.7959 -1.93834
-6.306 -11.8553 -1.88844
-6.5833 -11.7941 -1.93033
-6.45934 -11.8105 -1.88898
-6.05656 -12.016 -1.90557
-6.89592 -11.9703 -2.09544
-6.26744 -11.9041 -1.88572
-6.25328 -11.9509 -1.88496
-6.03705 -12.0813 -1.89706
-7.09654 -12.1005 -2.19743
-6.91444 -11.9839 -2.07063
-6.8073 -11.9434 -1.98761
-5.99083 -12.2031 -1.89987
-7.12671 -12.1364 -2.19167
-6.9045 -11.9975 -2.04179
-6.26129 -11.9781 -1.84862
-6.99533 -12.0576 -2.09393
-6.59323 -11.8653 -1.8569
-6.23781 -12.0373 -1.85537
-5.58847 -12.6577 -1.99323
-7.1395 -12.1263 -2.16507
-7.03734 -12.0694 -2.08511
-6.75972 -11.8143 -1.87358
-5.92447 -12.3616 -1.91558
-7.14613 -12.1556 -2.14405
-6.7693 -11.8085 -1.84321
-5.80504 -12.5934 -1.98089
-6.83058 -11.9586 -1.94453
-6.60393 -11.8978 -1.83078
-6.94127 -12.0381 -1.98523
-5.74681 -12.7082 -1.98505
-7.16313 -12.1667 -2.1008
-6.78404 -11.808 -1.81263
-6.61523 -11.9072 -1.80235
-5.73488 -12.772 -1.99005
-5.68205 -12.8863 -2.01089
-6.94206 -12.0575 -1.94513
-6.61386 -11.935 -1.78919
-5.70328 -12.8667 -1.98446
-7.04956 -12.1129 -1.99521
-7.26132 -12.3072 -2.16234
-7.17491 -12.1839 -2.06041
-7.29532 -12.255 -2.14709
-7.07072 -12.1341 -1.98251
-7.29926 -12.2691 -2.10279
-7.19229 -12.1944 -2.04455
-6.97565 -12.0556 -1.90199
-7.04544 -12.1456 -1.94259
-6.96309 -12.1059 -1.90696
-7.2047 -12.2119 -2.00149
-7.09555 -12.1567 -1.94207
-6.75583 -12.0089 -1.74199
-7.3109 -12.2709 -2.05663
-7.10512 -12.1675 -1.90854
-7.21039 -12.226 -1.96452
-7.29771 -12.2679 -2.00285
-7.34749 -12.3219 -1.95753
-7.24025 -12.2915 -1.90116
-6.80348 -12.1592 -1.6419
-7.35432 -12.3528 -1.8952
-6.55203 -12.6786 -1.51098
-6.9644 -12.3623 -1.50687
-6.81386 -12.407 -1.47344
-6.55663 -12.7099 -1.50425
-6.55653 -12.7465 -1.4882
-6.77084 -12.5589 -1.46836
-6.5659 -12.7555 -1.46647
-6.96172 -12.4221 -1.46397
-6.75723 -12.6133 -1.46919
-6.51091 -12.8835 -1.48441
-6.96432 -12.444 -1.45306
-6.75592 -12.6398 -1.4595
-7.095 -12.4705 -1.49032
-6.94873 -12.5426 -1.44231
-6.69431 -12.867 -1.47179
-7.10715 -12.5172 -1.45567
-6.95705 -12.6028 -1.44261
-6.66237 -12.9731 -1.48354
-6.92827 -12.6435 -1.44015
-7.10889 -12.5472 -1.44516
-6.91397 -12.745 -1.44455
-7.45529 -12.6119 -1.60023
-6.89586 -12.804 -1.4513
-6.87411 -12.8687 -1.45131
-7.09439 -12.605 -1.43511
-6.84177 -12.9724 -1.46299
-7.24013 -12.6132 -1.44914
-7.06047 -12.7093 -1.43982
-7.49541 -12.6236 -1.5671
-7.04756 -12.866 -1.44395
-6.75783 -13.3152 -1.49169
-7.37389 -12.6599 -1.4819
-7.00356 -12.9867 -1.44827
-7.358 -12.6972 -1.48131
-7.24074 -12.7614 -1.43295
-7.3907 -12.7123 -1.46016
-7.21309 -12.9056 -1.43829
-7.20038 -12.9676 -1.43671
-6.89264 -13.505 -1.50802
-7.4037 -12.7992 -1.42807
-7.36598 -12.9091 -1.43659
-7.36266 -12.9666 -1.4333
-7.10846 -13.3817 -1.48116
-7.53622 -12.8258 -1.4445
-7.07254 -13.5394 -1.50208
-7.06029 -13.6147 -1.50292
-7.51067 -12.9532 -1.43745
-7.29153 -13.3569 -1.47471
-7.23972 -13.6221 -1.50778
-6.73813 -11.8715 -2.44473
-7.94229 -13.0347 -1.57607
-8.36009 -13.0488 -2.28478
-7.61496 -13.5654 -1.5198
-6.71959 -11.8823 -2.48232
-6.84244 -12.515 -1.46136
-7.30882 -12.3021 -2.49505
-8.36725 -13.4458 -1.87435
-8.1993 -13.0568 -2.21216
-6.21693 -11.3948 -2.64375
-6.30171 -11.4582 -2.69671
-5.86406 -11.4429 -2.64562
-5.98405 -11.528 -2.65804
-6.34114 -11.5256 -2.5999
-6.45424 -11.5691 -2.6549
-5.78032 -11.303 -2.33263
-6.36284 -11.5461 -2.54157
-6.26353 -11.4838 -2.49138
-6.19809 -11.3675 -2.40108
-6.37643 -11.5579 -2.50169
-6.21263 -11.4152 -2.34763
-6.02048 -11.4455 -2.36919
-5.56659 -11.4079 -2.27578
-6.23315 -11.3922 -2.3257
-5.95549 -11.5403 -2.38951
-6.39583 -11.5782 -2.451
-5.82803 -11.3633 -2.19552
-6.57841 -11.7461 -2.5582
-6.23721 -11.4105 -2.29601
-6.11536 -11.3943 -2.2479
-6.34285 -11.6864 -2.45939
-5.55132 -11.5027 -2.20319
-6.4062 -11.6143 -2.38732
-6.68344 -11.8555 -2.58276
-5.49838 -11.5844 -2.2018
-6.70238 -11.8429 -2.54481
-5.59818 -11.5001 -2.13392
-6.45399 -11.6156 -2.29733
-6.49986 -11.7548 -2.40287
-6.806 -11.9496 -2.57312
-6.62952 -11.7863 -2.42898
-6.38403 -11.9238 -2.48443
-6.81422 -11.9419 -2.54832
-6.39191 -11.9262 -2.46666
-6.56735 -11.6987 -2.30792
-5.89876 -11.4546 -2.02425
-5.84959 -11.5091 -2.02418
-6.82869 -12.2018 -2.67233
-6.82008 -11.9589 -2.49793
-6.32393 -11.8548 -2.34331
-6.76164 -11.8818 -2.39314
-5.81346 -11.5717 -2.01247
-6.94371 -12.0186 -2.51842
-6.67516 -11.8009 -2.31118
-5.79935 -11.5985 -2.00843
-6.76195 -11.8634 -2.35132
-5.39815 -11.8524 -2.08557
-6.94374 -12.0458 -2.49217
-5.34987 -11.916 -2.09534
-7.05148 -12.1125 -2.53767
-6.8687 -11.9603 -2.39406
-6.41125 -11.6376 -2.07632
-7.13998 -12.2784 -2.60864
-7.08124 -12.1279 -2.49692
-5.97325 -11.6555 -1.95816
-6.98277 -12.071 -2.4215
-7.08069 -12.1558 -2.47817
-6.99385 -12.0488 -2.39516
-6.82217 -11.9104 -2.2467
-6.42628 -11.6601 -2.00801
-7.09502 -12.1444 -2.44017
-6.91782 -11.989 -2.29703
-6.63542 -11.7767 -2.11834
-7.01842 -12.0511 -2.34209
-5.53096 -12.0179 -2.02024
-7.20128 -12.2405 -2.48502
-7.11639 -12.1442 -2.40088
-7.30589 -12.3148 -2.54284
-6.93054 -11.9931 -2.26668
-5.81949 -11.9195 -1.95603
-5.7894 -11.9677 -1.95898
-7.40749 -12.4433 -2.58421
-6.95944 -12.0066 -2.19672
-6.44061 -11.7481 -1.92578
-7.44521 -12.4055 -2.53907
-7.25006 -12.2494 -2.39626
-7.05695 -12.0711 -2.2468
-6.76317 -11.8963 -2.04305
-7.3546 -12.3445 -2.44601
-7.15862 -12.1436 -2.29541
-7.0657 -12.0913 -2.24576
-5.94638 -12.0352 -1.93683
-7.45633 -12.4164 -2.49905
-7.35181 -12.3272 -2.42453
-7.07614 -12.0966 -2.19141
-6.97461 -12.0421 -2.14269
-5.92502 -12.0758 -1.9349
-7.54123 -12.527 -2.5759
-7.17737 -12.1579 -2.25116
-5.89496 -12.1258 -1.93891
-7.4615 -12.4345 -2.4877
-6.88341 -11.9788 -2.04751
-6.35211 -11.9432 -1.91291
-7.4567 -12.4156 -2.44416
-7.28636 -12.2424 -2.28577
-7.0986 -12.1177 -2.144
-5.84608 -12.2134 -1.93962
-7.37125 -12.3125 -2.34657
-7.21274 -12.1971 -2.24477
-6.15666 -12.0454 -1.88767
-7.59869 -12.5139 -2.48931
-7.49013 -12.4128 -2.395
-6.56905 -11.8715 -1.85873
-6.11513 -12.0991 -1.89322
-7.58017 -12.5092 -2.48503
-7.29742 -12.246 -2.24441
-6.57178 -11.8857 -1.8564
-7.40421 -12.3382 -2.28949
-7.10878 -12.1277 -2.11185
-7.00705 -12.0695 -2.05694
-7.59377 -12.5235 -2.4432
-7.21739 -12.2034 -2.14752
-7.01514 -12.0917 -2.03306
-5.97763 -12.3203 -1.93132
-7.70758 -12.5996 -2.49145
-6.91173 -12.0499 -1.94121
-7.60416 -12.5078 -2.39138
-7.41353 -12.3418 -2.24644
-7.02324 -12.103 -2.00101
-7.83649 -12.6389 -2.52101
-7.50845 -12.4141 -2.29292
-7.21591 -12.2122 -2.103
-6.81578 -11.9934 -1.89796
-7.6041 -12.4954 -2.34648
-7.63632 -12.503 -2.33621
-7.02881 -12.1224 -1.96771
-6.91631 -12.0713 -1.91239
-7.74684 -12.6185 -2.44444
-7.13547 -12.18 -2.01371
-7.54726 -12.4355 -2.23447
-7.25598 -12.2449 -2.04886
-7.15251 -12.1921 -1.99156
-6.78549 -12.1093 -1.85978
-6.72133 -11.9974 -1.77722
-7.84877 -12.7023 -2.4448
-7.65546 -12.509 -2.28854
-7.35191 -12.3081 -2.0975
-6.75267 -12.1767 -1.87104
-6.71712 -12.0061 -1.75268
-7.45331 -12.3705 -2.15053
-6.74223 -12.2152 -1.86168
-7.55266 -12.4485 -2.1907
-7.26585 -12.2699 -2.00486
-7.04802 -12.1615 -1.91046
-7.64557 -12.5148 -2.24999
-7.35497 -12.3181 -2.04697
-7.85152 -12.7576 -2.43431
-7.67213 -12.5384 -2.24249
-7.86121 -12.7451 -2.41408
-7.45918 -12.3975 -2.09583
-7.27251 -12.2861 -1.97913
-7.79381 -12.6174 -2.28495
-7.56316 -12.461 -2.14479
-7.69759 -12.5479 -2.19508
-7.58379 -12.4843 -2.13433
-7.49463 -12.4154 -2.05258
-7.59454 -12.4899 -2.09632
-7.29558 -12.3005 -1.94344
-7.29671 -12.3217 -1.91141
-7.6972 -12.5594 -2.1428
-7.81908 -12.6398 -2.19445
-7.50644 -12.4484 -1.99571
-7.40686 -12.3933 -1.93811
-7.70567 -12.5733 -2.09661
-7.60194 -12.5435 -2.03139
-7.40585 -12.4061 -1.901
-7.71394 -12.5903 -2.08958
-7.50946 -12.4647 -1.95309
-7.63359 -12.555 -1.98736
-7.8387 -12.6707 -2.09967
-7.51488 -12.5082 -1.90373
-7.85704 -12.6868 -2.08605
-7.64366 -12.5716 -1.95737
-7.74823 -12.6333 -2.02249
-7.96353 -12.7839 -2.14559
-7.75101 -12.6424 -1.98883
-6.88402 -12.3025 -1.53577
-7.86154 -12.6972 -2.04162
-7.64825 -12.6033 -1.90178
-7.53622 -12.5559 -1.85727
-7.98215 -12.7759 -2.10355
-6.88553 -12.3216 -1.50407
-7.99881 -12.7971 -2.09649
-7.88577 -12.7165 -2.00855
-7.75262 -12.6588 -1.94519
-6.88882 -12.3543 -1.49055
-7.77589 -12.6854 -1.93909
-7.89642 -12.7334 -1.97819
-6.88235 -12.3961 -1.47295
-7.78676 -12.7025 -1.89812
-7.46428 -12.5545 -1.72902
-6.98386 -12.4686 -1.5251
-7.90135 -12.7565 -1.93929
-8.00609 -12.8106 -1.99435
-7.00058 -12.4432 -1.47845
-7.48105 -12.5579 -1.68746
-7.00323 -12.4506 -1.45607
-6.79436 -12.6046 -1.46161
-7.00108 -12.4988 -1.45273
-6.49023 -12.932 -1.48513
-8.0416 -12.8525 -1.94254
-7.90625 -12.8065 -1.88552
-7.1371 -12.5223 -1.49543
-7.48068 -12.6483 -1.64257
-7.13951 -12.5512 -1.47319
-6.70952 -12.904 -1.47501
-7.16112 -12.5569 -1.45259
-7.13452 -12.61 -1.44666
-7.26089 -12.6357 -1.48565
-7.12904 -12.6396 -1.43874
-6.87248 -12.882 -1.45724
-7.11601 -12.6849 -1.43513
-7.10341 -12.7476 -1.43182
-7.06517 -12.8073 -1.43541
-7.4091 -12.7117 -1.49564
-7.00754 -12.9798 -1.4558
-6.67012 -13.3698 -1.50587
-8.11832 -13.0061 -1.8018
-6.84746 -13.3936 -1.49918
-8.11296 -12.9588 -1.75665
-7.3824 -12.8548 -1.43183
-7.10526 -13.2021 -1.46189
-7.65414 -12.8753 -1.49464
-8.01512 -13.0155 -1.66431
-7.29277 -13.1504 -1.44915
-7.26147 -13.2463 -1.45897
-7.40933 -14.0398 -1.83681
-7.65843 -12.9251 -1.46546
-7.49887 -13.039 -1.43713
-8.12671 -13.0838 -1.69668
-8.01912 -13.0475 -1.64289
-7.46661 -13.1141 -1.44741
-7.77957 -12.9849 -1.50504
-7.44435 -13.2034 -1.44917
-8.14691 -13.1041 -1.69836
-7.80611 -13.0101 -1.48808
-7.64473 -13.0189 -1.4402
-7.42256 -13.2709 -1.45858
-8.14107 -13.1208 -1.65804
-7.65231 -13.0592 -1.44392
-7.41325 -13.3472 -1.46132
-7.60309 -13.2119 -1.45271
-7.30611 -13.6439 -1.50394
-8.14977 -13.1558 -1.64563
-7.91925 -13.0956 -1.50418
-7.81915 -13.0543 -1.45152
-8.05275 -13.1226 -1.56177
-7.51175 -13.5716 -1.48568
-7.92201 -13.1478 -1.4823
-7.73384 -13.3121 -1.47379
-8.0576 -13.1934 -1.52652
-7.64259 -13.6357 -1.50618
-7.86214 -13.4412 -1.48267
-7.43346 -12.4778 -1.78108
-5.95306 -11.3226 -2.54083
-6.41531 -11.5583 -2.69707
-5.96974 -11.3331 -2.50658
-6.24323 -11.4243 -2.56424
-6.12321 -11.3753 -2.51759
-6.40666 -11.5909 -2.65125
-5.91194 -11.3045 -2.34654
-6.21323 -11.5079 -2.52122
-5.75829 -11.3032 -2.28206
-6.25804 -11.4998 -2.444
-6.0081 -11.2745 -2.25151
-6.09441 -11.3711 -2.29375
-5.77477 -11.3501 -2.21072
-6.68272 -11.8244 -2.58148
-6.11205 -11.3976 -2.18764
-6.69191 -11.8264 -2.54613
-6.21788 -11.5 -2.24954
-6.42357 -11.641 -2.33829
-5.81924 -11.3995 -2.10131
