9.93405 10.6492 -2.30585
10.4873 11.1841 -1.34357
9.28986 10.4937 -1.70034
11.0463 11.7822 -1.36555
9.95775 11.0486 -1.4774
11.8022 12.2849 -1.54171
11.1163 11.89 -1.32492
10.4664 12.1333 -1.01841
11.4321 11.9416 -1.73517
10.2077 10.9569 -1.99091
10.9389 11.5315 -1.79558
11.0959 12.0526 -1.09288
9.27299 12.1018 -1.54433
10.2671 11.3148 -1.32076
8.71916 10.8026 -1.84637
12.4791 12.9449 -1.60588
9.39487 10.3824 -2.01266
12.4626 13.196 -1.32821
9.64301 10.5484 -1.69283
8.97997 10.9308 -1.63858
12.061 13.9323 -1.34985
9.99704 12.4529 -1.10924
10.8329 11.4671 -1.55365
10.3311 11.3271 -1.41262
11.8574 12.3705 -1.91558
9.4328 10.4065 -2.18634
11.1447 11.7333 -1.59738
12.0453 12.6358 -1.44019
11.9863 12.4492 -1.83895
10.5696 11.9718 -1.01025
10.8508 11.4803 -1.76266
10.4997 11.9683 -1.05257
9.65042 10.5417 -1.95599
9.91115 10.7395 -1.79078
10.6874 11.3398 -1.79327
9.94009 11.0495 -1.45274
10.7483 11.379 -1.96121
11.2689 11.8271 -2.09105
12.257 13.001 -1.34106
11.0515 12.7272 -0.971184
10.6663 11.33 -1.93112
9.39513 11.5959 -1.58099
10.0888 10.8417 -1.69547
9.15224 10.4074 -2.0439
9.28748 10.4392 -2.08059
9.13637 10.438 -1.91072
10.0788 11.5368 -1.40821
12.2464 12.838 -1.39458
10.6906 11.7736 -1.10048
10.776 11.9445 -0.956558
10.697 11.4851 -1.44336
8.73572 10.774 -1.81006
12.4402 13.6916 -1.85207
10.0832 12.0018 -1.12018
11.4462 12.1094 -1.39299
11.6808 12.7342 -1.04734
10.0623 11.4571 -1.4611
11.577 12.6387 -0.948811
11.3546 12.2613 -1.05782
9.90196 10.7981 -1.54501
11.0173 11.7447 -1.41286
11.9444 12.4946 -1.54267
9.59366 10.7933 -1.54359
9.68814 12.4033 -1.2943
10.5429 11.1125 -1.35412
9.78886 10.5623 -1.73725
11.741 12.394 -2.01037
11.5881 12.2469 -1.40131
11.1483 11.9942 -1.23882
9.98808 12.5488 -1.99442
12.0141 12.4861 -2.07549
9.97844 12.4747 -1.9761
11.005 11.6015 -1.68965
11.7908 12.8137 -0.999443
8.89151 10.6403 -1.71459
11.6936 12.1985 -1.73988
12.2174 12.9591 -1.22614
9.97882 11.0206 -1.46607
9.2169 10.7885 -1.63896
8.96449 11.4011 -1.61001
12.0831 12.5947 -1.51001
10.146 12.4034 -1.98303
10.6191 13.1795 -1.06425
12.5832 13.0111 -1.79169
10.3978 11.0815 -2.14563
9.68538 12.574 -1.82225
11.0956 11.7331 -1.49929
12.6496 13.4247 -1.81889
10.4576 11.1373 -2.14767
10.2468 12.7881 -1.00641
9.30464 10.5295 -1.75304
11.0027 11.5832 -1.9419
9.75017 10.7788 -1.55161
8.54204 11.0844 -1.77563
10.8612 11.4802 -2.09696
9.38849 10.4417 -2.15092
11.562 12.0781 -1.88655
10.6395 11.2551 -1.99467
11.8995 12.4083 -2.13038
11.808 12.3451 -1.64715
10.7381 11.3881 -1.68958
9.28261 11.0876 -1.55962
11.7292 12.6083 -0.964878
9.73619 12.6476 -1.84879
11.7093 12.97 -0.987701
12.0508 12.5797 -1.49652
9.71683 10.8682 -1.5032
10.5596 12.9849 -1.03855
10.9704 11.5876 -2.06823
8.51811 11.0103 -1.95331
11.3962 12.2585 -1.12127
11.8181 12.788 -1.0216
10.6436 11.2971 -1.69503
9.64552 10.5694 -2.34198
9.28529 10.7994 -1.59288
10.0876 12.334 -1.9585
9.95183 12.5967 -1.96147
9.85301 10.8504 -1.52628
12.2561 13.0374 -1.18816
11.8577 12.865 -1.02404
9.6257 10.4279 -2.12826
10.8954 12.7332 -0.988052
9.16949 11.0866 -1.56802
12.1094 12.651 -2.16148
12.0012 12.4515 -2.04163
10.7914 13.0971 -1.03834
11.3447 11.8525 -1.9482
12.0527 12.8869 -1.15244
9.63931 10.5056 -2.24399
9.5515 10.6367 -1.59142
10.6828 11.3369 -2.1136
12.5639 13.0256 -1.96245
8.89302 10.6446 -1.74044
9.92694 12.2 -1.14161
9.03395 10.8424 -1.6084
11.5786 13.3033 -1.02094
10.1451 10.9381 -1.59169
9.63043 12.3551 -1.3001
10.6891 11.6432 -1.19254
11.4516 12.0431 -1.44086
11.8305 12.2807 -1.73847
11.6949 12.3525 -2.14988
9.42296 11.0294 -1.53584
10.1421 10.8121 -1.69639
9.66608 10.478 -2.08262
8.66882 10.7606 -1.93849
10.0258 12.3867 -1.97518
10.8441 11.4749 -1.89902
9.51045 12.3707 -1.35113
10.8767 12.9324 -0.993546
11.9532 13.1212 -0.988552
9.20956 11.0545 -1.58988
11.8083 13.2098 -1.02378
12.125 12.5043 -2.30917
10.345 11.4231 -1.20969
12.179 12.5545 -2.29699
12.0107 12.5259 -1.57632
9.89131 12.7336 -1.7461
9.9026 12.7596 -1.79363
11.3959 11.9518 -1.69502
9.34967 11.84 -1.52921
9.3535 11.6994 -1.58828
11.9928 14.1924 -1.89086
11.5899 12.3615 -1.12137
10.7979 11.8134 -1.04457
9.99756 12.8427 -1.66348
9.85304 10.635 -2.15437
9.83134 10.9812 -1.51572
11.0424 11.7863 -1.39922
11.8143 12.8737 -0.947205
10.6978 13.2267 -1.01998
10.9304 11.5104 -1.75774
9.56543 12.4435 -2.02174
8.96069 11.7924 -1.61578
9.6451 10.7048 -1.62883
11.9667 12.4868 -2.20906
11.4009 12.5367 -0.917004
11.1451 11.7972 -1.48023
9.26372 10.4658 -2.17722
9.05969 10.5916 -1.93013
9.17337 11.9893 -1.56995
11.1839 13.6253 -1.08331
12.1764 12.6757 -1.53667
9.64168 10.6917 -1.55531
10.5427 11.166 -1.67546
11.2976 11.8149 -1.50401
11.5944 12.1302 -1.91838
10.1439 10.844 -1.99394
10.6537 12.6381 -1.00444
10.103 11.0938 -2.08922
11.9983 12.8172 -1.05914
10.6386 13.0599 -1.05797
11.0402 11.6136 -1.7903
9.91463 10.6715 -2.14573
10.8797 11.4736 -1.80994
11.2298 11.9279 -1.41409
8.84923 10.5906 -1.90043
11.7064 12.2356 -1.60178
10.938 11.5451 -2.04722
9.83551 12.7055 -1.73756
10.8385 11.4424 -2.09045
9.47054 11.5049 -1.57714
12.4489 13.1312 -1.34218
11.3348 11.8313 -1.66711
12.5446 13.5056 -1.8333
10.1492 12.7018 -1.08572
12.2416 12.8497 -1.36039
12.1403 13.0077 -1.01792
9.09482 10.4402 -2.02599
10.6219 11.2639 -1.74388
11.2824 12.1792 -1.13006
10.9928 11.6051 -2.18044
11.9392 12.5924 -1.36046
12.4996 13.0451 -1.44827
10.4662 12.0056 -1.04297
11.8456 12.3928 -1.8464
11.1493 12.3022 -1.0207
9.30318 11.071 -1.57125
9.59262 12.4345 -2.02961
10.2411 10.9455 -2.05297
10.0157 10.7316 -2.17497
11.2386 12.1621 -0.993065
9.75478 10.6421 -1.59726
12.0464 12.5379 -1.54875
12.3943 12.8906 -1.49008
11.2971 11.9004 -1.49123
12.4097 13.569 -1.35075
11.6531 12.2097 -1.48802
10.9011 12.0859 -0.94445
10.0646 11.4174 -1.42641
11.2956 12.4272 -0.909611
11.0302 11.6082 -1.85072
9.93654 10.7651 -1.60784
10.3501 11.1947 -1.49303
12.4729 12.86 -1.87502
9.98642 10.7367 -1.84463
12.1433 12.6159 -1.80117
11.3441 12.2934 -1.00257
10.015 12.7781 -1.8267
10.833 12.0922 -1.46898
10.1709 10.8939 -1.7499
11.8031 12.461 -1.35798
9.1476 10.6352 -1.86002
12.3549 12.8849 -1.44725
9.85905 10.6358 -1.90091
10.258 11.2001 -1.39276
9.7612 12.6013 -1.94525
12.2763 13.0556 -1.14968
10.2568 10.9874 -2.19353
9.79868 10.5844 -2.04374
12.6893 13.2003 -1.79339
11.1439 11.6958 -2.03712
8.73573 10.7794 -2.19818
9.98477 10.8939 -1.55176
8.94208 10.5998 -1.69531
10.2106 10.9113 -1.89614
10.8951 11.9842 -1.45333
12.5983 13.084 -1.74776
8.8438 10.647 -2.20827
9.57549 10.7401 -1.59086
12.4655 12.9453 -2.06373
10.9662 11.9472 -1.37358
11.567 12.7116 -1.00004
10.4239 12.2693 -1.03348
10.9345 11.5595 -2.18642
10.3945 11.4492 -1.20374
11.2557 11.8382 -1.84007
11.3235 11.8738 -1.81513
10.274 11.331 -1.34303
10.8398 11.4617 -1.8985
9.58328 10.4756 -1.65224
11.2522 12.2977 -0.996124
9.3345 10.8803 -1.5827
9.67604 11.2708 -1.53046
11.6868 14.1335 -1.35687
8.85239 11.6601 -1.61975
8.75041 10.7833 -2.22144
11.4951 12.0392 -1.89465
9.39383 10.4861 -1.79856
10.4985 11.1393 -1.44124
9.25809 11.6856 -1.5547
11.2227 11.9142 -1.40854
12.2729 12.8409 -2.06915
12.4761 13.4579 -1.39131
9.01956 11.6847 -1.59605
9.72752 12.5982 -1.70338
10.2427 11.063 -1.49632
10.8869 11.5016 -2.0579
10.2514 12.1809 -1.07431
10.2535 10.9839 -1.79654
9.81841 10.5902 -1.99305
12.0814 13.9007 -1.35202
12.1933 12.5981 -2.19455
10.3506 11.1185 -1.75505
11.0571 11.6359 -2.13142
11.6502 12.1464 -1.83904
10.9126 12.3121 -0.985424
11.5487 12.1336 -1.74911
10.4371 12.0275 -1.02425
9.92589 12.6939 -1.84232
9.81404 10.6121 -1.80793
10.5415 11.1524 -1.35246
11.0726 12.6345 -0.973877
10.0237 10.9269 -1.57659
12.6153 13.0835 -1.78322
9.66704 10.5959 -2.00677
10.8141 12.5679 -0.997353
10.4379 12.1888 -1.03079
12.29 12.7489 -1.68895
9.53108 10.503 -1.61697
10.4115 11.443 -1.2394
10.9024 11.5318 -1.7416
10.7376 11.38 -1.75304
9.0952 10.5963 -1.69019
10.901 11.9022 -1.52538
11.4614 12.0491 -1.84442
12.4183 13.6606 -1.48394
10.9821 12.9732 -1.03074
9.2814 10.4958 -1.81655
10.8158 11.4661 -1.64142
9.35345 10.4966 -1.65681
11.8657 13.2821 -1.02289
9.09219 11.9946 -1.6209
12.0565 12.5313 -1.99279
11.1573 12.6635 -0.968002
12.5678 13.404 -1.45707
10.8443 11.5403 -1.48822
12.1472 12.9263 -1.17691
12.0437 12.523 -1.79854
10.8783 11.9613 -1.55565
11.6498 12.1751 -2.05873
9.93509 12.8255 -1.91979
9.63219 11.4182 -1.50721
10.0561 12.7837 -1.10728
10.8804 11.4676 -1.94552
10.1052 10.9107 -1.92878
9.2491 10.4004 -1.86459
9.78255 10.7435 -1.55703
11.7475 12.2719 -1.58322
11.1871 11.8852 -1.4464
10.5933 11.2156 -2.11525
11.8558 12.7322 -1.07793
11.4773 12.1021 -1.40356
8.63806 10.8958 -1.82904
9.55153 12.3402 -1.42484
11.8998 12.5011 -1.42658
8.94136 10.526 -2.04577
11.7729 13.1279 -1.01509
10.2428 12.867 -1.0803
11.8174 12.3172 -2.1274
11.2147 12.566 -0.956284
10.1311 10.8153 -1.94071
10.9642 11.9947 -1.27512
10.3413 11.1981 -1.3903
12.4507 13.5479 -1.33012
9.38936 10.6474 -1.56752
12.5047 12.9944 -1.59074
11.9478 12.8277 -1.0509
8.68312 10.7472 -2.09871
11.5748 12.4447 -1.13682
9.82487 10.5855 -1.95071
12.3839 13.1371 -1.24307
11.6846 12.2036 -2.1416
10.6516 11.7413 -1.04491
10.9542 12.2437 -0.960522
12.0945 12.5529 -1.84803
11.8011 12.3224 -1.78787
10.1956 12.7917 -1.09433
12.6817 13.1624 -1.97292
11.7446 12.4333 -1.39671
12.2835 12.6927 -1.74664
9.64363 10.526 -2.28387
8.82651 10.7206 -1.74837
10.7551 11.3918 -1.98749
9.03488 10.451 -2.18646
10.7419 11.6859 -1.18841
9.7836 12.3479 -1.94805
12.4222 13.6792 -1.78693
11.3743 11.926 -1.5144
10.2235 10.9612 -1.76052
9.74937 10.5554 -1.74106
10.0081 11.006 -1.48695
12.0652 14.1894 -1.99807
12.3224 13.8244 -1.86778
11.0402 11.7417 -1.44563
12.5453 12.9777 -1.79205
11.1031 12.7612 -0.984447
11.5341 13.2347 -0.999069
9.97527 10.6802 -2.23317
10.7914 11.5874 -1.45032
9.97377 10.6709 -1.65001
12.5415 12.9572 -1.89463
11.9534 14.0398 -1.36149
9.88478 10.7328 -2.04789
10.3227 12.9348 -1.07881
12.6333 13.2063 -1.68373
10.2816 11.2448 -1.30788
10.5228 11.726 -1.09511
10.7129 11.4742 -1.5352
11.2836 13.5556 -1.07363
10.8203 12.524 -0.959843
9.86571 11.556 -1.44675
9.79265 10.5472 -2.19914
11.3479 13.7535 -1.10635
10.7125 12.8521 -1.01311
11.0372 11.8402 -1.29552
11.6384 12.1964 -1.44346
10.3538 11.3562 -1.33228
9.43047 10.8781 -1.54684
9.08542 10.5378 -1.78589
12.1411 12.74 -1.40881
11.162 13.4533 -1.04849
9.4968 10.7844 -1.58518
12.296 13.0518 -1.18941
10.4526 11.5924 -1.14921
11.9433 12.4955 -1.44928
11.7965 12.5827 -1.19257
12.3795 12.909 -1.40758
9.85147 10.7361 -1.68359
9.68576 11.3873 -1.49212
10.549 11.3571 -1.45488
10.948 11.5768 -1.69905
8.99762 10.5372 -1.80911
12.2761 12.6896 -1.95255
10.472 11.1013 -1.95834
10.2993 11.3012 -1.29272
11.6052 12.1081 -1.80305
11.5756 12.0521 -1.58332
12.2806 13.9401 -1.85098
12.0629 12.9192 -1.08955
11.9449 12.4357 -1.80124
10.5924 11.834 -1.04716
12.2001 12.9556 -1.19508
11.8779 12.3972 -1.50599
11.1851 11.7297 -2.12202
9.33334 11.1729 -1.54739
11.4968 12.1549 -1.39618
12.4896 13.1841 -1.35093
9.05302 10.8385 -1.63115
11.6023 12.1498 -1.48397
10.9891 11.9723 -1.09411
12.3716 13.0132 -1.31724
9.69438 11.2661 -1.50645
11.2905 11.8042 -2.09118
12.0249 12.4553 -1.66104
11.0076 11.6837 -1.56152
11.6334 13.098 -0.964165
9.75679 10.5278 -2.14947
12.2018 12.6781 -1.5873
9.93639 10.9843 -1.50597
10.0199 10.8274 -2.07034
11.083 11.6779 -1.7108
11.3766 13.3454 -1.04817
11.3011 12.5164 -0.936867
9.52837 10.5188 -2.28565
10.0724 11.2853 -1.45422
12.2188 12.6045 -2.29554
9.31071 10.8928 -1.5631
12.1339 12.6311 -1.55647
9.34024 11.6505 -1.59718
10.5324 11.1668 -2.12362
12.0314 12.5085 -2.27906
10.8552 11.9459 -1.02588
10.7946 11.4095 -1.94251
9.56606 12.4894 -1.58924
12.2591 12.8614 -2.07501
10.9469 12.0072 -0.955914
9.59715 10.5721 -1.63301
9.60953 10.4638 -2.19158
11.5 12.14 -2.24335
12.3298 12.7731 -2.06722
12.0559 14.2041 -2.03406
9.6769 10.6348 -2.36451
10.8601 12.9413 -1.00482
11.9865 12.9484 -1.00676
10.7837 11.9412 -0.991596
11.3411 11.9485 -1.50064
9.82356 10.5639 -2.23744
11.9379 12.4041 -1.93782
9.77699 10.5629 -1.71438
10.5925 11.6762 -1.05049
10.7531 11.3866 -1.79663
9.30235 10.4578 -1.85318
10.1046 11.5168 -1.42398
11.4235 13.2757 -1.01855
9.82451 10.5447 -2.29921
9.64383 12.5529 -1.79113
8.99994 10.578 -1.71243
10.704 11.9049 -0.995258
11.0842 11.8773 -1.25365
10.4952 11.2334 -1.49946
11.4804 13.7335 -1.08802
10.3788 11.2613 -1.34406
10.9083 11.9445 -1.01034
11.0832 11.6818 -1.79264
12.1523 12.7078 -1.40908
9.72989 10.516 -2.05531
10.1467 11.1421 -1.40477
11.5345 12.1575 -1.4049
9.62216 10.5755 -1.72552
10.0671 10.9122 -1.62291
11.554 12.1284 -1.53543
12.6873 13.2597 -1.98431
12.6354 13.0879 -1.79694
9.84639 10.7603 -1.54455
11.4917 12.5041 -0.953594
12.5475 13.0048 -1.69152
11.7112 12.3844 -1.3636
10.2152 10.9512 -2.06852
9.8409 10.6662 -1.60978
9.86166 10.7848 -1.58586
10.1231 11.0699 -1.41953
11.8757 12.5244 -1.36013
12.0059 13.0683 -1.01624
10.0485 12.2112 -1.91626
10.4387 11.115 -2.13639
11.6629 13.2485 -1.00963
8.55266 10.9224 -1.97276
9.02786 10.4981 -2.25818
11.3587 13.2997 -1.01216
11.0821 11.701 -1.46006
10.0378 10.8412 -1.85031
10.5607 13.0921 -1.04722
11.1278 13.551 -1.0238
11.6125 12.3685 -1.20177
10.7675 11.5292 -1.68875
11.3085 12.2266 -1.09031
9.7849 12.657 -1.71185
10.5666 11.2103 -1.7382
10.9286 11.5421 -2.13387
11.6613 12.6355 -1.03505
11.2303 13.5402 -1.0669
12.0541 12.5319 -1.89717
10.3282 11.0371 -1.69356
11.8669 12.5574 -1.25636
9.96007 12.4307 -1.96621
10.4535 11.1862 -1.59201
11.7793 12.2769 -1.71904
11.2859 13.649 -1.08015
11.5189 12.6201 -0.998585
10.8547 13.3725 -1.06512
11.9882 13.2001 -1.02567
11.4645 12.0246 -2.09039
10.3635 11.3122 -1.22704
10.2432 12.885 -1.08266
12.5119 13.192 -1.3825
11.7259 12.1656 -1.67834
11.5718 12.5321 -1.12912
9.21355 12.1401 -1.54791
11.8959 12.7904 -1.04641
10.7602 11.9507 -0.987991
10.7039 11.6945 -1.14188
9.62961 12.506 -1.70105
10.6538 11.6576 -1.06763
9.80133 10.5893 -1.75252
9.63664 10.485 -1.79205
9.93863 10.7403 -1.80964
11.7562 12.2282 -1.94178
12.2979 12.9518 -1.34819
11.2302 11.7486 -2.09536
12.3579 12.7793 -1.94078
10.2798 10.9992 -2.04573
9.75247 10.5159 -2.08915
9.1678 10.4226 -2.15184
9.49655 12.326 -1.47796
8.79988 10.7102 -1.74043
10.0419 10.9858 -1.50589
12.0403 13.0281 -1.07127
11.7403 12.2111 -1.94044
10.121 11.8803 -1.21251
9.3468 11.1414 -1.5367
11.0497 11.6362 -1.75644
11.0871 12.0912 -1.10856
10.0429 12.5082 -1.12587
8.80595 10.5996 -2.04931
10.3913 11.4852 -1.19261
9.88115 10.6831 -1.80378
9.25945 10.4043 -1.88673
11.9495 12.402 -1.65073
9.45306 10.5609 -1.60559
10.1143 11.0609 -1.40443
11.1141 11.6732 -2.04183
10.7055 11.428 -1.53851
10.6705 11.4618 -1.45523
9.55804 10.4836 -1.77438
12.0441 12.5307 -2.28271
11.5127 12.065 -1.73289
10.4183 12.2139 -1.02726
12.2943 12.6954 -1.79581
10.4973 11.1534 -1.48773
10.1033 12.3943 -1.99604
11.8935 12.3331 -2.09075
12.1147 12.7469 -1.38857
10.2459 11.0796 -1.53667
11.1952 12.1984 -1.02884
10.5931 11.9459 -1.01839
9.32045 10.3664 -1.92851
9.56448 10.5919 -2.20338
10.984 11.903 -1.35944
12.1357 12.588 -2.25602
10.5971 11.6031 -1.09598
9.56093 12.3843 -1.30297
9.20531 10.8703 -1.55234
11.0591 12.9928 -0.988438
11.5779 12.1562 -1.92693
9.04735 10.4961 -1.94217
10.7465 11.403 -2.18836
11.1428 11.8322 -1.44676
9.675 12.5822 -1.81604
9.23703 12.14 -1.54654
11.7287 12.2286 -1.88384
11.8351 12.5026 -1.28645
10.1959 10.9804 -1.79535
10.8982 11.9424 -1.04335
12.0002 12.4879 -1.6442
10.6276 11.4011 -1.43782
11.2916 11.8494 -1.58156
12.0412 12.857 -1.10268
12.5901 13.1924 -1.49614
11.2496 11.8376 -1.54665
10.9606 12.9593 -0.9888
11.9781 12.5963 -1.40978
11.87 12.3145 -1.99373
11.7484 12.6917 -0.994392
9.78941 12.5453 -1.17813
11.7063 12.7483 -0.98386
10.9853 12.7924 -0.987614
12.1318 12.6768 -1.81267
11.4057 11.9503 -1.93799
12.6963 13.1905 -1.84044
10.7776 11.8372 -1.01902
11.7095 13.0535 -1.02253
10.0221 10.7433 -2.15491
11.0657 11.6901 -1.79339
9.94026 11.1905 -1.49375
11.4043 11.9711 -1.74134
12.4109 13.2234 -1.2953
10.6917 11.3487 -1.64752
9.79071 10.5714 -2.38345
9.44548 10.7829 -1.59182
10.1003 10.8936 -1.60108
11.3815 11.9704 -1.6828
10.8493 12.9814 -1.00392
10.3875 11.0725 -2.09694
12.2459 12.7819 -1.43947
10.1559 10.9024 -1.74072
12.4551 12.8855 -1.64201
12.2521 12.7811 -1.49071
10.1353 11.942 -1.12126
10.5343 12.4509 -1.73884
10.1399 10.8039 -2.29308
9.20625 10.4375 -2.1368
12.3268 12.7489 -1.79529
10.652 12.2102 -1.67507
10.4028 11.095 -1.84127
10.9882 11.5885 -1.5964
12.1597 12.6378 -1.8398
12.4062 13.1361 -1.28476
8.59052 10.8917 -1.9476
10.3856 11.0884 -1.69215
11.0133 12.3917 -0.973736
12.4041 12.8455 -1.74674
9.13979 10.5469 -1.71104
9.58453 11.4254 -1.50546
10.1013 10.9458 -1.53743
11.1684 13.4648 -1.07187
12.5302 13.5295 -1.60448
12.0205 12.4914 -1.89482
11.9246 12.7071 -1.13354
10.3952 11.3503 -1.25101
8.99088 10.4896 -2.17852
9.30891 10.4915 -2.14883
11.8945 12.3601 -1.85119
10.8436 13.2043 -1.04111
10.4108 11.1103 -1.59485
10.4944 11.2983 -1.44751
10.1881 11.1387 -1.44596
9.20193 12.0932 -1.56719
10.4031 11.1422 -1.54403
11.8808 12.723 -1.09766
11.6538 12.3436 -1.38557
12.6086 13.4569 -1.82611
12.2833 12.8366 -2.07912
9.74109 10.5016 -2.18999
9.25401 10.5531 -1.90977
11.8504 13.1789 -1.02767
12.4796 13.0125 -1.40826
8.86952 10.6706 -1.76051
11.0381 12.1029 -1.00415
12.5879 13.0024 -1.84164
9.53795 10.4329 -1.8423
9.95515 10.6476 -2.34566
12.453 12.9318 -1.80518
11.6423 12.1527 -1.53894
11.2379 11.8271 -1.59092
9.07359 11.2696 -1.62414
9.14886 11.9681 -1.62106
11.5797 13.1944 -1.00322
8.99852 10.5766 -1.84271
10.3041 11.0549 -1.73708
9.39546 12.243 -1.49618
11.1278 11.6797 -1.89947
11.4807 11.9909 -1.89238
9.46974 11.6229 -1.51985
10.9259 12.5419 -0.955956
11.7658 12.6573 -1.1554
11.2111 11.8215 -1.63835
12.1872 12.798 -1.35819
9.31534 10.5477 -1.821
12.606 13.3389 -1.49033
10.4812 12.4313 -1.64722
9.98482 10.7297 -2.31301
9.86205 12.4062 -1.93664
11.351 12.3895 -0.969162
10.948 12.141 -0.944675
11.6847 12.2227 -1.77927
11.9005 12.3906 -2.34541
10.9511 11.7258 -1.44302
12.0922 12.9002 -1.10353
10.1893 10.9845 -1.55496
11.1044 11.8502 -1.29811
11.6053 12.1256 -1.85196
10.0384 10.7989 -1.69756
9.8295 11.5164 -1.35657
10.1614 12.6538 -1.08408
11.2881 11.8115 -1.83515
9.18489 11.9513 -1.62155
10.9262 12.8756 -0.990421
12.6812 13.1609 -1.80483
9.89674 10.5968 -2.40265
11.9561 12.5054 -2.00638
11.5877 12.0941 -1.70177
10.8416 11.9015 -1.30975
8.50165 11.0112 -2.27773
10.5567 11.187 -1.45118
11.4511 11.9794 -2.14786
12.4803 12.8939 -1.75203
11.9026 12.372 -2.30719
11.3276 12.82 -0.959614
12.0837 12.4651 -2.34109
11.4623 12.6263 -0.930298
9.56047 10.4452 -1.88992
9.25896 10.6372 -1.89755
10.9906 11.9547 -1.04926
10.9321 12.763 -0.994904
10.2064 10.9405 -1.71027
11.4119 11.9459 -2.07774
10.8461 11.8959 -1.08244
11.7097 12.3484 -2.18115
11.0931 12.2386 -0.910255
11.0777 11.608 -2.09089
10.0783 10.7585 -2.12293
12.5583 13.2881 -1.5052
10.0501 10.8515 -1.67496
11.1255 11.6528 -1.74878
10.0273 11.4197 -1.52868
10.9537 13.4698 -1.0752
9.2421 12.0975 -1.54842
9.25859 10.9504 -1.5507
12.2041 12.6529 -1.74387
11.3375 13.7737 -1.1106
10.5935 11.2271 -1.99343
10.3511 11.0807 -1.97845
11.9915 14.1563 -1.76958
11.8511 12.4524 -1.42989
9.64659 10.4887 -1.83947
10.8518 13.2502 -1.05199
11.633 13.4831 -1.05025
10.4135 11.1513 -1.6366
11.5573 12.0796 -2.05209
10.9207 11.5081 -2.01363
9.44055 12.2735 -1.53445
11.8896 12.7118 -1.08527
10.9147 11.5619 -1.63259
12.2757 12.7012 -1.56741
10.6368 11.2802 -1.7529
12.4994 12.9032 -1.89366
12.2886 12.739 -1.84842
9.49617 10.5409 -1.62937
11.553 12.0865 -1.64086
10.0996 10.9052 -1.6527
12.6355 13.0798 -1.9433
12.0236 12.4424 -2.20396
10.3616 11.0554 -2.09158
12.2117 12.9843 -1.19597
11.0455 12.0032 -1.09668
10.5694 13.106 -1.07453
12.1405 12.5893 -1.84712
10.4031 11.3965 -1.28638
10.2057 11.2792 -1.3562
9.65256 10.5914 -1.60455
9.3291 10.5392 -1.83068
11.2361 11.7576 -1.99788
11.3866 11.9408 -1.55164
9.83493 10.6721 -2.02554
10.5946 11.3838 -1.48748
10.024 12.1131 -1.8921
10.0414 10.886 -1.87939
12.1081 12.6292 -2.00595
12.0596 12.5465 -2.26598
12.2149 12.6667 -1.58372
9.84274 10.6056 -2.25464
12.4439 13.1975 -1.29416
11.7141 12.2176 -1.58946
10.041 10.8318 -2.15714
10.539 11.5641 -1.11269
11.8047 12.2992 -1.63122
11.4314 11.9461 -2.09174
9.56178 10.5992 -2.25136
11.3512 13.3607 -1.02713
11.994 13.9957 -1.39059
11.2332 12.272 -0.968639
9.35252 10.7313 -1.59451
11.4303 11.9567 -2.12729
12.3403 13.0444 -1.24591
10.8345 11.3917 -1.72113
9.88618 10.6548 -1.6562
12.1837 12.9899 -1.05542
10.2053 10.9638 -1.73715
12.1639 12.6328 -1.62622
10.4505 11.1079 -2.04441
11.1939 11.7487 -1.75023
10.0547 12.0323 -1.11707
11.0084 11.7895 -1.40926
11.4685 12.4155 -1.0217
11.6465 12.3503 -1.34276
8.77203 11.7244 -1.67933
10.7746 12.9222 -1.00683
9.84354 12.7319 -1.76842
10.5964 11.7414 -1.06206
9.63596 10.4835 -2.04556
11.1969 12.341 -0.982544
11.176 11.7516 -1.54716
9.73103 12.5365 -1.84811
8.66237 11.3455 -1.69163
8.50241 11.1559 -1.88274
11.5418 12.8117 -0.978363
10.6179 13.126 -1.0024
9.92905 11.2326 -1.49956
12.2886 13.9735 -1.99784
11.0392 11.6561 -1.49288
11.007 11.601 -1.99535
12.0017 12.503 -1.69109
10.2119 10.9412 -1.8786
10.7632 12.1265 -0.99511
11.1372 11.7495 -1.54812
9.97856 12.6015 -1.1226
12.5925 13.0928 -1.55227
12.1008 12.6277 -2.26188
11.9565 12.4597 -2.13306
10.6034 12.6907 -0.99868
10.4099 11.744 -1.1228
11.547 12.6348 -0.91629
12.4996 12.9784 -1.7539
9.64265 12.4399 -1.86711
12.2957 12.9496 -1.29459
11.9046 12.3918 -1.68764
9.76271 10.5826 -1.85008
10.1875 10.9319 -1.65542
12.0942 12.5317 -2.24551
12.5306 12.9893 -1.59787
12.0626 12.52 -1.84438
9.96423 10.7572 -1.73417
12.2322 12.8958 -2.07903
10.7336 12.0501 -1.71992
10.8045 12.0968 -1.51726
10.9167 13.0634 -1.01003
9.34773 10.5206 -1.67125
11.7531 12.9477 -0.984715
11.1952 13.4979 -1.08998
10.6317 11.2908 -1.65223
11.1423 11.6961 -1.75473
12.2217 13.8312 -1.37344
12.3507 13.1039 -1.21307
9.94505 10.8919 -1.50161
10.0527 12.2179 -1.95076
10.3517 10.9699 -1.65489
11.3627 11.8801 -1.93261
10.6037 11.3322 -1.53291
10.9152 12.4269 -0.975956
12.5313 12.9514 -1.94771
11.4919 12.6471 -0.93668
11.0918 11.6396 -1.9935
10.2321 11.0422 -1.78957
11.2834 11.8102 -2.02752
9.73232 10.6237 -1.8856
11.0466 12.2173 -0.917969
9.53398 11.0741 -1.53392
10.7705 11.4332 -1.70255
8.70895 10.7717 -1.74587
10.0415 12.4418 -1.96791
9.92775 10.6649 -2.0023
11.5069 13.1371 -0.997532
10.3003 11.3481 -1.27969
9.12897 11.3299 -1.58649
10.6514 11.5065 -1.48468
11.2861 12.8768 -0.978905
9.94302 10.6948 -2.0398
9.50912 10.392 -2.03086
11.7256 12.6903 -1.03534
10.7075 12.0563 -1.73452
10.8208 11.8187 -1.055
11.9451 12.3643 -2.18584
10.3414 11.3878 -1.21205
10.1326 12.3492 -1.08452
9.69835 10.5732 -1.97428
9.64561 10.4638 -1.87584
9.9528 10.7358 -1.68156
11.1295 13.5432 -1.07656
10.5437 11.2448 -1.70221
11.0412 12.0487 -1.00699
10.9413 12.0926 -0.986382
11.9392 12.3914 -2.19856
12.3323 13.9273 -1.89592
10.9815 11.613 -1.50345
10.3855 11.2621 -1.4276
11.7574 12.2411 -1.97375
11.0359 12.0268 -1.09276
10.5332 11.1597 -1.95556
9.43541 10.5284 -1.65147
9.38467 10.4026 -2.06252
9.76688 10.615 -2.39178
10.6911 11.7404 -1.05897
11.0413 13.4472 -1.06381
9.64745 10.752 -1.55553
10.1493 12.7431 -1.03712
9.69444 12.4054 -1.25372
11.6398 12.1516 -1.69126
10.5227 11.1523 -1.99078
12.15 12.9445 -1.13649
10.6467 11.7922 -1.00869
10.1925 10.9513 -1.58728
12.2115 12.6928 -1.64729
10.4894 11.1619 -2.13057
10.8033 11.4185 -1.75824
9.5731 12.3212 -1.29951
12.4162 12.8974 -2.08938
11.9541 12.7632 -1.04874
9.72256 11.3288 -1.47743
12.1697 12.5872 -2.04506
10.0253 12.5286 -1.12271
10.4983 11.5162 -1.15356
10.5244 11.1702 -1.31126
11.8408 12.9967 -0.99929
10.6011 11.9473 -1.03044
12.1362 12.6753 -1.44553
11.6607 12.1795 -1.75232
10.3232 11.1671 -1.4617
12.6195 13.0578 -1.95463
10.1147 12.7137 -1.08778
12.3271 13.8289 -1.51894
9.23926 10.4333 -1.84559
9.79654 11.2581 -1.49115
12.0764 12.5371 -2.04555
10.9958 11.7475 -1.43443
9.6976 12.4569 -1.32826
10.1023 11.3488 -1.41166
12.2395 13.8029 -1.30639
10.7453 11.4586 -1.50919
12.5432 13.1463 -1.54917
12.6269 13.3333 -1.51513
10.4975 11.2086 -1.40295
10.1956 10.9125 -1.60772
12.5297 12.996 -2.04362
8.94351 10.5488 -1.80255
12.052 14.1745 -1.92459
10.8004 11.9939 -0.955475
10.6008 11.2473 -2.12479
12.0932 12.5781 -1.79445
12.3452 12.8476 -1.44256
11.2611 12.2397 -1.04057
12.1892 13.9447 -1.71344
9.66917 12.5764 -1.80318
12.368 12.8253 -2.08231
10.6885 13.1013 -1.05418
11.0446 11.8647 -1.33181
12.1888 13.9826 -1.85181
10.6396 11.282 -2.15012
10.1187 10.8188 -2.07285
10.4205 11.1433 -1.51814
9.52673 12.4444 -1.88609
11.2136 11.8602 -1.47745
10.2453 11.2103 -1.34562
10.8747 13.3869 -1.07405
10.8863 11.9059 -1.00126
10.4313 12.949 -1.00735
11.3081 13.777 -1.1208
11.2471 11.9792 -1.4108
12.4058 12.9284 -1.4908
11.5882 12.6431 -0.991074
9.41234 11.0325 -1.52488
9.43456 10.4862 -1.82615
10.4317 11.1056 -1.79387
8.5529 10.9548 -1.94616
9.33122 10.5328 -1.90559
9.87195 10.6774 -2.00816
11.9722 13.1288 -1.0262
10.6791 11.2988 -1.72023
10.0375 10.7947 -2.0499
12.3454 13.0021 -1.30161
10.1704 12.6195 -1.90065
9.89464 10.6814 -2.2975
11.2994 12.4508 -0.981728
12.0471 14.1657 -1.88692
12.1308 12.8989 -1.1425
10.9462 12.5017 -0.953758
10.8531 12.6498 -0.986626
10.5509 11.3439 -1.49075
11.4703 12.0162 -1.43541
10.103 12.6419 -1.83503
11.9953 12.4488 -1.99009
12.3548 12.9505 -1.38757
12.5854 13.192 -1.45071
10.7855 11.5021 -1.68055
10.4842 11.1992 -1.69848
12.2597 12.6454 -2.18784
11.0539 11.8889 -1.2321
11.4517 12.6405 -1.0541
10.1901 10.8848 -2.09023
11.7212 12.2905 -1.41602
11.2761 11.9327 -2.24969
11.1014 11.8309 -1.40966
8.86171 10.5775 -2.11299
11.1378 12.5868 -0.985237
11.5791 13.3961 -1.01986
12.3079 13.1317 -1.15862
11.7065 12.793 -0.997997
11.8998 12.3847 -1.64781
11.2279 11.7758 -1.84723
10.9936 13.3936 -1.08031
11.7402 12.2509 -1.5049
10.3461 11.291 -1.33689
10.8563 11.4653 -1.73045
10.0979 10.8531 -1.74444
11.9082 13.2183 -1.02174
10.2281 11.2178 -1.31939
11.2524 11.9112 -1.44919
11.3429 12.4637 -0.909832
9.65123 12.4445 -1.26009
9.75067 12.6549 -1.87977
11.7409 12.2563 -1.70366
12.6879 13.1642 -1.8209
12.4163 13.808 -1.98549
11.0518 12.0584 -1.04307
9.28035 10.5851 -1.88474
12.4524 12.9996 -1.43502
10.5739 11.2153 -2.04905
8.89531 10.536 -1.99591
11.2496 13.6754 -1.05817
10.7506 11.7393 -1.09308
12.2426 12.6208 -2.31655
9.56407 12.4389 -2.00305
9.28325 11.2403 -1.54226
12.0206 12.4626 -1.90834
8.73859 10.6953 -1.94274
9.83772 12.4557 -1.95264
11.5022 12.5574 -0.986683
11.1639 11.772 -1.54533
9.73862 12.6367 -1.75013
12.2341 13.9025 -1.48523
12.3829 12.7973 -1.74369
12.5962 13.1214 -1.6051
10.7026 12.1502 -1.65371
9.68747 10.7402 -1.59032
11.263 13.6786 -1.08055
10.2411 11.0265 -1.70872
12.3161 13.1606 -1.17831
10.1254 10.7964 -2.21297
10.4994 12.0998 -1.03247
10.3534 11.0567 -1.89432
10.9382 12.1889 -1.01636
11.8826 12.3112 -2.10927
10.7464 12.6553 -1.00344
11.7471 12.6409 -1.04723
9.70607 10.7028 -1.5613
12.1126 12.5489 -2.1468
9.22708 10.5753 -1.89892
11.02 11.612 -2.1737
10.1748 12.2816 -1.07266
9.30281 11.675 -1.58315
11.5164 12.0233 -2.00151
10.6706 11.6568 -1.08937
10.4802 11.1066 -1.98147
12.2296 12.8805 -2.2065
10.9748 11.9291 -1.36947
11.9522 12.9635 -0.99028
9.60907 12.3799 -1.34861
12.1098 12.5854 -1.63991
11.2841 11.8163 -1.65157
10.5807 11.2057 -1.99405
12.1325 12.5592 -1.83389
12.1969 12.7851 -1.39955
10.7199 13.0226 -1.03598
10.1994 10.9046 -1.84917
9.57988 10.5771 -2.1529
12.3313 13.8007 -1.7845
12.4497 13.6418 -1.49367
9.90355 12.3893 -1.9431
11.9922 12.4759 -2.26056
11.3835 12.4864 -0.945972
11.6274 12.1742 -1.55051
9.66647 12.394 -1.27166
9.14594 11.9659 -1.6107
10.8442 11.4963 -1.5043
12.0291 12.4904 -2.05173
10.8706 11.852 -1.05001
10.7476 13.3452 -1.09088
10.786 11.4129 -1.70057
11.4234 12.0588 -1.41864
10.7316 12.1512 -1.38914
10.2063 12.2456 -1.07897
10.2354 11.0323 -1.55357
10.5424 11.1845 -1.99432
10.0888 11.5133 -1.4002
8.6752 10.7797 -1.93913
8.82092 10.6226 -1.90738
12.1579 12.7032 -2.07203
11.7537 13.2964 -1.01086
10.613 11.7962 -1.03476
11.6491 12.1511 -1.80639
9.10512 10.4542 -2.09824
9.67308 10.8282 -1.54199
11.5301 12.0595 -1.50741
10.6139 11.4352 -1.48764
11.1 12.1465 -0.990341
12.5541 13.0524 -1.59097
10.6949 11.7083 -1.05247
8.84116 10.5963 -1.99245
12.0266 12.7876 -1.10452
10.6407 11.2834 -1.79018
11.2404 11.756 -1.95282
11.452 12.0185 -1.46388
10.2012 10.9814 -1.58644
8.79137 11.821 -1.69628
12.3336 12.7357 -1.84627
9.12917 11.5095 -1.5821
10.8218 11.4309 -1.81824
9.99057 10.7423 -2.1034
9.14377 10.4281 -2.05149
10.7921 11.4545 -1.49797
8.95152 10.9324 -1.59972
9.64021 10.6139 -2.02486
11.5955 12.1035 -2.04955
9.99188 12.7646 -1.97993
11.5596 12.4452 -1.08647
9.88779 10.7544 -1.60457
9.51958 10.4179 -2.13457
10.1801 12.688 -1.77934
12.6125 13.1391 -2.06689
10.3306 11.1084 -1.51292
12.1633 12.6308 -1.97476
10.4453 12.9439 -1.05678
9.00174 10.4878 -1.98086
11.1449 12.5509 -0.988262
10.9716 11.6866 -1.41942
10.52 11.1623 -2.04361
11.7868 12.2423 -1.94978
11.5077 12.0827 -1.54826
12.6312 13.3495 -1.64733
10.02 10.9355 -1.53917
9.37376 12.2771 -1.44258
10.2597 10.9699 -1.90961
11.2103 11.7536 -1.69411
10.2653 10.9988 -1.74876
10.7114 11.3267 -2.01766
9.05359 10.4508 -1.97858
9.30115 11.8569 -1.51892
9.86432 10.6151 -2.02434
12.0935 12.5582 -1.79215
11.8283 12.3081 -1.5325
12.0274 12.5535 -1.92871
10.5573 11.2376 -1.74746
10.9437 13.436 -1.06783
9.04538 10.4893 -2.15427
9.57443 12.5154 -1.62373
11.0771 11.6143 -1.77075
12.1022 12.5833 -1.99018
10.6767 11.3086 -1.73139
9.80598 10.5833 -2.08876
10.4925 11.1942 -1.75206
9.90437 10.7362 -1.97008
11.692 12.1723 -1.91133
11.901 12.3643 -1.89419
11.1281 13.0737 -0.999165
11.7387 12.3932 -1.38865
10.0471 10.7833 -1.94218
10.274 10.9288 -1.82721
11.3669 13.3262 -0.997879
9.93414 10.8338 -1.55619
11.9593 12.4352 -1.99871
9.51512 12.3415 -1.38688
11.3203 13.6512 -1.09383
9.39362 10.4621 -1.68587
9.69908 12.5399 -1.86945
11.344 12.3312 -1.00494
11.0377 13.473 -1.01707
10.9394 11.9507 -1.00089
12.5149 13.6801 -1.96487
10.8477 12.0397 -0.948238
10.6536 11.3016 -1.54051
10.5976 12.9911 -1.04415
12.103 12.5955 -1.94271
10.8979 11.5052 -1.59935
9.37917 10.4866 -1.83766
11.6011 12.5286 -1.03702
11.4064 12.0377 -1.49495
10.8435 11.8534 -1.04295
11.685 12.1187 -1.57207
11.9133 12.8196 -0.987751
9.13655 10.495 -1.6923
9.70338 10.5221 -2.16373
8.78961 10.7314 -2.22118
9.51181 10.7625 -1.55499
10.7004 12.1969 -1.54388
11.1702 11.8593 -1.37624
11.2519 13.3142 -1.02214
10.5489 12.8601 -1.02706
10.8236 11.4444 -2.13011
11.5537 13.3625 -0.98045
10.4351 11.1102 -2.08632
12.0353 12.4891 -2.09993
10.9458 13.3954 -1.01194
10.8239 12.0941 -1.49323
10.6797 11.3201 -1.93786
10.0603 10.7843 -2.12847
11.0852 11.8402 -1.35746
9.60071 10.5945 -2.2402
11.5316 12.0453 -1.99882
9.89143 12.5252 -2.00651
9.3522 10.4745 -1.74823
11.6589 12.8121 -0.953976
9.58815 10.8986 -1.54149
11.1036 11.6918 -1.6022
9.94942 10.7019 -2.09309
9.26892 10.9659 -1.58046
10.137 12.5096 -1.98476
11.1866 12.1494 -1.00214
12.3407 12.9877 -1.34443
8.9736 10.5269 -1.92562
11.9853 12.4507 -2.16254
12.1012 14.1466 -1.90952
10.8109 12.0211 -1.00178
9.55043 10.6016 -1.60269
12.6334 13.4717 -1.92016
12.0999 12.7412 -1.36187
8.47668 11.2427 -1.92713
11.3636 12.5546 -0.930927
8.5137 11.0463 -1.8889
11.0211 12.0098 -1.05959
11.1629 11.7351 -2.08877
10.4735 11.1984 -1.30801
8.91109 10.6191 -1.76958
10.4481 11.1369 -1.39818
11.5303 12.0365 -1.9471
10.2992 12.4128 -1.04869
11.3382 13.5336 -1.06015
11.1288 12.0992 -1.04353
10.583 12.2839 -1.6353
10.033 10.766 -1.8623
11.3617 12.476 -0.91317
12.172 12.6324 -1.64276
10.6221 11.6063 -1.18563
11.934 12.4028 -1.59805
12.4118 13.7994 -1.93694
11.1482 11.6928 -1.98817
9.60918 10.5713 -1.69172
10.7707 11.3438 -1.6883
9.61385 10.458 -1.98287
12.1871 12.953 -1.15855
10.5454 11.2054 -2.10214
10.7148 11.9497 -1.0493
9.97882 10.7993 -2.0118
10.036 10.7544 -2.09331
10.0235 12.0735 -1.12328
11.3593 11.8879 -2.09009
12.2003 13.9476 -1.74163
10.0514 10.8352 -2.1999
9.72983 12.4764 -1.20943
12.1083 12.6341 -1.77672
11.7918 12.3355 -1.54559
11.8851 12.5774 -1.38096
9.09877 10.5901 -1.72332
11.9846 12.9767 -1.03814
10.1538 12.4984 -2.03736
11.0115 11.6373 -2.17129
11.0902 12.237 -0.990799
11.0033 11.5885 -1.84492
12.0394 12.8668 -1.0428
9.64285 12.3641 -1.33606
11.9871 12.3784 -1.46426
12.0975 14.0663 -1.63591
12.672 13.1472 -1.95567
10.4988 11.2014 -1.78793
9.53047 11.5546 -1.50956
9.97713 10.7181 -2.11389
11.9253 12.4752 -2.08559
10.4399 11.1577 -1.60092
9.29845 10.4426 -1.89607
9.82451 12.6996 -1.71893
12.0891 12.9251 -1.05742
11.1134 12.0068 -1.23454
10.2089 10.9306 -1.951
10.2866 11.0051 -1.59661
10.7572 11.4314 -1.69063
10.9021 11.5394 -2.12626
11.0394 11.7126 -1.40954
9.71561 10.5334 -2.2205
9.68907 12.6183 -1.9996
10.8902 11.491 -1.65226
11.4992 12.0561 -1.6763
10.4946 11.5024 -1.19013
10.9785 12.0085 -1.00857
8.85802 10.5981 -1.81238
9.82422 10.6316 -1.77641
11.1347 12.2822 -0.94241
10.0278 10.957 -1.46846
11.2257 11.8031 -1.59624
11.8783 12.3091 -2.13879
10.1132 11.9548 -1.10517
11.8027 12.5395 -1.29287
10.9364 12.102 -0.946922
11.2324 13.4744 -1.07104
12.2802 12.8124 -1.4142
11.7513 12.8275 -0.947121
8.47365 11.1436 -2.0217
9.01665 10.5607 -1.72936
9.95888 12.6143 -1.12191
9.23917 10.409 -2.04801
11.6074 12.2299 -1.4325
10.3877 11.3147 -1.28205
12.2492 12.6563 -1.94424
9.26231 10.5153 -1.83175
11.9887 12.4962 -1.49728
11.0376 12.5392 -0.973305
11.7344 13.3222 -1.0203
9.7243 10.5453 -1.91945
9.30203 12.1929 -1.52618
9.79886 12.6164 -2.00745
12.6087 13.1033 -1.68528
11.5975 12.5806 -1.01182
10.2431 12.7532 -1.06366
12.2978 12.8952 -1.38432
9.6017 10.4841 -2.23064
10.3864 11.412 -1.15878
11.6071 12.2607 -1.3629
9.17874 10.4519 -1.96025
9.96413 10.8036 -1.82243
9.42867 10.6268 -1.59988
8.75352 10.6548 -2.06717
9.60924 10.6603 -1.58691
11.9244 12.355 -1.69489
11.9122 12.9216 -1.02097
9.84653 10.705 -1.46392
11.2062 11.8256 -1.53492
11.3923 12.517 -0.913155
10.5797 13.0539 -1.0507
10.6792 11.3036 -2.11254
9.20862 11.1735 -1.54312
11.7791 12.5915 -1.15212
10.912 11.5141 -1.7392
10.8903 12.3382 -0.985519
9.72931 10.8722 -1.52972
10.1328 11.9361 -1.11019
9.00583 10.5294 -2.13145
10.7494 12.5226 -1.0115
10.1757 11.0184 -1.46216
9.85989 10.6896 -1.79835
12.0029 12.4751 -1.84834
9.38795 10.4041 -1.84678
10.3476 11.0042 -1.99309
11.3933 11.9911 -1.5403
11.4015 13.2922 -1.01254
11.9439 12.7813 -1.14342
10.5145 11.1597 -1.7755
12.4987 12.9449 -1.89668
9.08411 10.4164 -1.96709
10.9128 11.8427 -1.48917
12.4123 12.7923 -1.93921
10.91 11.5312 -1.78225
11.6716 12.1315 -1.76156
11.8912 12.7782 -1.0853
12.5359 13.5146 -1.57701
11.724 12.6308 -1.01537
11.8282 12.3046 -1.8115
11.4064 13.6497 -1.07639
11.5824 12.4402 -1.10308
12.5241 12.9668 -1.58243
9.43828 10.4543 -2.24557
12.4907 12.9377 -2.02583
11.7525 12.8071 -0.949493
11.9251 12.3849 -1.69987
10.9595 11.5836 -2.05904
9.64671 10.5524 -1.74555
10.5288 11.1956 -1.79987
10.34 11.2736 -1.31217
9.17245 10.3911 -2.10721
11.0489 11.9857 -1.15367
11.0874 11.8544 -1.19118
12.2032 12.7581 -1.3941
10.6879 11.3776 -1.65128
11.4543 12.0469 -1.79883
11.7254 12.2442 -1.60723
10.9594 11.5932 -1.57863
12.5252 12.9458 -1.73379
11.2344 12.9276 -0.979885
11.6147 12.1233 -2.00328
12.0221 12.5135 -1.7605
11.1245 11.6589 -1.78462
11.4223 11.9016 -1.67186
8.64967 10.7868 -2.10231
11.8439 13.1796 -1.01074
11.0938 11.6523 -1.70448
10.6818 11.4035 -1.54868
11.3858 11.8997 -1.99132
9.90784 11.0077 -1.50538
10.9978 12.0509 -0.992935
11.8847 12.3147 -2.04382
11.6329 12.7079 -0.941422
11.1783 12.9839 -0.980129
12.5709 13.4669 -1.51957
12.248 12.792 -1.39495
10.083 10.7778 -1.85631
11.7435 12.3975 -2.29179
12.0812 12.523 -2.19194
9.42831 10.592 -1.63042
8.95825 10.4995 -1.92813
11.4448 12.4956 -0.985149
9.53609 12.3395 -1.35206
10.9131 13.3839 -1.04648
10.35 11.1042 -1.68544
12.5967 13.234 -1.49471
10.0693 10.7927 -2.07401
12.2784 12.9886 -1.20634
11.1674 11.7988 -1.59953
11.0546 12.2196 -0.932457
11.0298 13.0289 -1.00509
10.9404 11.9865 -1.00153
11.2146 13.5607 -1.06869
9.30409 10.6457 -1.52193
12.5552 13.3516 -1.42849
10.4995 11.8319 -1.05746
9.87978 10.5976 -2.30421
11.868 13.1047 -1.00286
11.3573 12.0376 -1.4426
10.5517 13.0817 -1.01254
11.9369 12.3892 -2.04161
12.026 12.5473 -1.49228
9.28633 10.4529 -2.19429
9.39009 11.6359 -1.57798
11.5972 12.1821 -1.31591
11.1663 11.7418 -1.72586
11.6438 12.5401 -1.04601
10.5944 11.2859 -1.64084
12.3793 12.9936 -1.35237
9.83257 12.4781 -1.95152
11.6009 12.1082 -2.09085
12.1267 13.0723 -1.09047
10.5375 11.2044 -1.69186
12.6091 13.1235 -1.64245
12.6589 13.1916 -2.0232
12.1511 12.549 -2.14342
11.8349 12.3082 -2.04783
9.81744 10.8096 -1.57452
9.15964 11.1007 -1.56892
9.44742 12.3215 -1.39998
10.9605 11.5852 -1.72633
10.1366 10.8324 -2.09604
10.9061 12.1231 -1.0106
10.7912 13.2984 -1.05236
11.9129 14.224 -1.87217
9.84035 10.6021 -1.99426
9.68781 10.5798 -1.6092
12.6269 13.2475 -1.66904
12.2458 12.7558 -1.444
11.5462 13.5398 -1.05557
10.4555 12.9539 -1.07393
11.4274 12.3573 -1.01749
9.16496 10.412 -1.93093
10.505 12.7952 -1.02422
10.4799 12.1281 -1.03188
10.0546 11.2991 -1.4438
10.2072 12.894 -1.0733
11.769 13.2587 -1.01773
12.3081 12.7929 -1.63229
10.4085 11.0607 -1.99472
11.7548 13.1271 -1.00207
12.494 13.646 -1.83574
10.4494 12.9112 -1.06519
9.1931 12.0441 -1.58738
9.79492 10.7473 -1.57455
10.3277 12.0761 -1.07155
8.78075 11.3354 -1.65341
11.1541 11.7359 -1.64583
10.3466 11.0226 -1.99633
9.05959 10.4969 -1.89231
12.6545 13.1632 -1.64818
11.3348 11.9971 -1.44965
10.5001 11.1987 -1.65118
11.7994 12.3397 -2.20641
11.1845 12.4878 -0.963371
9.76137 10.5402 -1.99838
11.1053 12.8214 -0.978687
11.7462 12.299 -1.44073
10.0537 10.7992 -1.74574
9.04701 10.4656 -1.82301
11.4957 12.0509 -1.54368
10.9175 13.4014 -1.01033
10.9999 11.6025 -2.1388
9.04231 10.5547 -1.74915
10.9336 11.541 -1.95338
9.19307 10.6263 -1.81333
11.3062 12.7476 -0.952881
11.5949 12.6899 -0.994328
11.6846 13.5868 -1.05814
10.9033 11.5507 -1.59618
11.5646 12.3856 -1.17775
11.9274 12.4961 -1.41722
11.8591 12.3461 -1.7392
10.6555 11.2956 -1.93118
10.3388 11.1856 -1.44859
10.0268 10.7868 -2.26411
9.77234 12.4556 -1.28214
12.6637 13.1567 -1.94703
11.2103 11.8116 -1.59284
11.7804 12.2648 -1.70857
10.183 12.2605 -1.06206
12.5037 12.9759 -1.9703
9.86577 10.9559 -1.53358
11.3523 12.2878 -1.03956
12.5381 13.6117 -1.83109
12.5751 13.0092 -1.74784
10.0394 10.763 -2.26277
12.0212 12.4079 -2.33364
8.92441 11.321 -1.65152
10.7961 11.5005 -1.49027
8.55635 10.928 -2.10999
11.207 12.3109 -0.911507
9.98935 12.778 -1.79496
11.9604 12.5425 -1.42598
11.4575 12.0128 -2.07711
11.6698 12.3307 -2.27451
11.7876 12.5297 -1.25145
12.5938 13.2068 -1.59075
11.9539 13.1042 -1.07097
10.8446 11.7538 -1.1423
12.2324 12.6022 -2.28577
10.3969 11.063 -2.04359
10.8288 11.4608 -1.65469
11.8059 12.3339 -2.13006
11.4958 11.9973 -1.93868
10.0886 12.6341 -2.0616
11.8592 12.3725 -1.59653
11.3794 11.8878 -1.94925
11.1066 11.9464 -1.4147
8.71161 10.7816 -2.16862
10.4419 12.8533 -1.03712
12.5231 13.1528 -1.36542
11.9591 12.4206 -1.85926
10.2011 12.6511 -1.77934
11.8328 12.8526 -0.960258
9.64641 10.475 -1.88952
9.62418 10.4841 -1.71757
10.2125 12.7471 -1.07856
10.9932 11.8445 -1.38326
11.4897 13.3168 -1.00432
11.8466 12.3075 -1.94921
9.38206 10.5886 -1.6444
12.6236 13.1238 -2.03274
9.94389 12.2554 -1.91244
11.3924 13.4918 -1.0492
10.8198 13.041 -1.02206
9.12169 10.4728 -2.22616
11.1894 11.8506 -1.46409
11.229 12.1237 -1.10361
9.05722 11.6145 -1.59122
10.1743 12.4696 -2.02988
11.1336 11.7523 -1.46427
11.6804 13.0605 -0.989048
9.89096 12.7181 -1.72665
11.4674 12.0251 -1.7527
12.3342 13.0151 -1.252
11.8401 12.8745 -0.988918
11.1786 12.6389 -0.97438
11.5303 12.6098 -0.953026
10.1535 11.046 -2.10202
10.2945 11.2055 -1.34708
10.1275 10.8512 -1.79137
12.5949 13.0391 -1.94946
11.1179 12.2896 -0.9202
10.0737 12.6209 -1.10654
12.0164 12.5267 -1.94714
10.3488 11.0479 -1.84093
11.6955 12.2049 -1.53846
9.72731 12.498 -1.22581
11.2965 13.4417 -1.05025
10.5093 11.1859 -1.99094
10.176 12.5441 -2.02075
9.39755 10.4668 -1.7938
10.86 13.3358 -1.01085
11.4466 13.1922 -1.00268
9.73776 11.1184 -1.49072
10.0008 12.2561 -1.93489
11.2976 11.9142 -1.57849
9.40176 10.4461 -1.84364
12.2605 12.7055 -1.78846
11.6375 12.1059 -1.86978
12.3275 13.8919 -1.86844
11.03 11.5685 -1.89561
12.3374 12.7938 -2.09609
9.31754 11.6581 -1.54856
11.7121 12.4437 -1.39257
11.3821 11.9207 -1.8176
12.6888 13.3285 -1.88634
9.80675 10.5425 -2.29187
11.8823 12.3507 -1.59797
11.1066 11.6834 -2.09737
12.4354 13.6323 -1.65714
10.3598 11.7946 -1.11012
9.33656 10.9969 -1.54505
12.2846 12.6603 -1.48209
11.963 12.4778 -1.59435
11.5525 12.2122 -1.36725
10.528 11.7234 -1.12323
10.7522 11.9414 -0.958023
11.1362 11.6682 -1.89106
9.87895 10.6377 -2.04808
9.79385 10.7973 -1.51682
9.37421 10.9779 -1.57688
12.4117 12.9199 -1.6969
12.3974 13.7315 -1.8743
11.0181 12.2227 -0.996555
10.9585 12.6687 -0.998077
9.39948 12.242 -1.45551
10.9967 11.9503 -1.28117
10.1733 11.0236 -2.10213
9.3542 10.4274 -1.89137
12.0873 12.9019 -1.05155
10.0123 10.7144 -2.31479
11.2805 11.9092 -1.45667
10.9433 12.0471 -1.00259
10.5341 11.2041 -1.85073
10.6546 11.8392 -0.99781
11.0963 11.7273 -1.63063
10.7929 11.4775 -1.63729
10.5865 11.239 -2.09497
11.7352 12.5265 -1.15619
12.0475 12.5929 -1.55546
9.75078 10.5618 -1.82194
11.1362 12.1857 -0.990631
11.7387 12.7787 -0.99955
9.97429 10.6493 -2.36605
11.4128 12.5443 -0.951763
10.7715 11.4623 -1.45766
10.0608 11.1421 -1.45286
10.9672 13.1785 -1.01802
10.2809 11.8062 -1.52761
10.7157 11.97 -1.06765
8.66855 10.8405 -1.8153
10.7457 11.3708 -2.05433
10.7824 11.4597 -1.5497
10.7386 11.3661 -1.74836
10.931 12.4389 -0.948273
11.8817 12.9035 -0.957447
9.19713 10.6555 -1.6071
12.4431 12.9055 -1.58438
11.2911 12.2376 -1.01023
11.4801 12.566 -0.908062
11.7997 13.0528 -1.00033
11.8502 12.8511 -0.992847
9.98463 10.7667 -1.61317
10.3424 11.3482 -1.25402
10.6562 12.129 -1.74368
11.5659 12.1319 -1.78184
11.6775 12.5443 -1.04338
9.71623 10.5586 -1.89686
11.982 12.4339 -2.10387
11.0927 11.6503 -2.04398
10.9544 12.7946 -0.984673
11.8544 12.308 -2.08723
9.84325 10.8824 -1.53807
11.2472 12.2449 -1.00487
10.9441 13.1126 -1.01508
10.5608 11.3864 -1.49419
11.9527 12.8918 -1.03137
11.0968 12.5971 -0.959412
9.9257 10.7966 -1.56282
11.2413 11.9332 -1.43983
9.19701 12.0027 -1.6005
9.91205 10.8374 -1.51903
11.6381 12.3083 -2.27277
11.3069 12.1607 -1.12903
9.37581 10.8203 -1.5779
9.52235 12.4297 -1.84389
10.0961 12.3054 -1.94633
11.2104 11.7 -1.84451
10.0002 10.7449 -2.04515
8.79379 10.6019 -2.01372
9.36409 11.1173 -1.53775
8.99744 10.5495 -1.87444
11.1935 11.7408 -2.04342
9.74944 12.6519 -1.79801
11.9219 12.4357 -1.46074
11.3858 12.912 -0.986923
11.1943 11.765 -1.64302
10.0806 12.2061 -1.93065
10.8403 11.4649 -1.69285
11.6474 12.601 -0.998966
10.5141 11.805 -1.04985
10.8961 11.5064 -1.69127
12.0924 14.0739 -1.6527
10.5531 11.785 -1.08374
9.88982 10.8487 -1.55293
10.9312 11.9053 -1.03699
11.6452 12.9812 -0.976185
10.2243 11.0643 -1.45637
10.8976 11.9928 -0.99823
12.2289 12.6544 -1.86033
9.96384 10.7824 -1.74075
10.0322 10.7052 -2.35014
9.66638 10.5541 -2.01918
12.1409 14.0286 -1.57845
11.5626 12.0868 -1.98485
11.8477 12.6618 -1.09294
12.1344 12.5796 -2.00786
12.0442 12.7415 -1.29317
10.0077 10.7097 -2.3453
11.0949 12.0999 -0.999855
11.311 12.8561 -0.987934
12.389 12.8272 -2.04802
11.294 11.8362 -1.89491
12.5431 13.4764 -1.74855
12.2477 12.6874 -1.69262
12.1481 12.6803 -1.49325
11.1425 12.1404 -1.04245
9.98776 12.1278 -1.89146
10.9569 11.6343 -1.48355
12.0141 12.4771 -1.94776
9.08185 10.8232 -1.65414
9.58147 12.4656 -1.78286
10.1499 12.8143 -1.08607
11.057 11.6401 -2.09057
12.6667 13.1938 -1.79632
10.1911 12.3897 -1.98638
8.89833 11.1956 -1.6569
11.2081 11.7866 -1.83762
12.3148 12.8807 -1.42537
9.53368 10.4835 -1.73989
9.44269 10.455 -1.78722
12.3696 12.8687 -1.4531
11.5108 13.696 -1.0929
9.29482 10.495 -1.72221
10.9761 11.5616 -1.73785
11.0399 11.6488 -1.60318
11.0883 11.7251 -1.59626
10.8562 12.8026 -0.995564
11.5663 12.8776 -0.964294
12.3944 13.0362 -1.3438
12.5816 13.3037 -1.59868
10.0985 12.7421 -1.09185
9.02415 10.9128 -1.6245
10.4701 11.1428 -1.70238
9.8278 10.6731 -2.00721
8.78593 10.7924 -1.6926
9.30876 11.7583 -1.59975
10.0457 10.9568 -1.49452
9.29543 10.4026 -2.1506
10.9832 11.8381 -1.43783
11.4162 13.1278 -1.00756
9.95207 10.6942 -2.19329
9.15517 10.805 -1.61327
9.81622 11.2367 -1.46447
11.5744 12.922 -0.979622
12.6224 13.5033 -1.98784
11.8097 12.854 -0.943531
9.94287 12.8016 -1.75478
9.74709 10.5157 -1.77135
11.4801 12.3521 -1.09294
12.2119 13.9525 -1.55665
8.53801 11.0564 -1.83975
11.284 11.8062 -1.93667
12.1587 12.6396 -2.19456
11.8848 12.3616 -1.79285
9.69981 10.6431 -1.59829
10.2755 11.0562 -1.50016
10.3353 10.9991 -1.95438
10.9376 11.6609 -2.29821
8.79459 10.7452 -1.73734
12.3085 13.0026 -1.28048
9.91765 12.2654 -1.90744
10.0059 11.0923 -1.44839
9.6469 12.5728 -1.84055
12.2568 12.851 -2.18604
8.75346 10.6831 -1.86707
10.2933 11.0292 -2.11366
11.6852 13.0743 -1.01131
11.8145 13.3542 -1.01972
11.952 12.4774 -1.76454
10.7454 11.8577 -1.00404
10.6474 11.7368 -1.07751
10.1814 10.8324 -2.15775
10.9907 11.9222 -1.38397
8.98303 11.7401 -1.59791
8.69756 10.7507 -1.92034
11.5994 13.5603 -1.08095
12.4008 12.8051 -1.88435
10.465 13.0081 -1.00854
10.8238 13.2702 -1.08147
12.2851 13.0856 -1.14014
10.5103 11.2337 -1.53827
11.0632 12.3581 -0.960461
11.2257 11.7664 -1.80746
11.4673 12.0327 -2.12785
12.4297 13.0033 -1.4001
12.3616 13.1248 -1.23196
12.6786 13.2227 -1.84502
12.2491 12.6965 -1.73849
12.0733 12.5893 -1.5558
10.5856 11.2399 -1.79485
12.4427 12.9466 -1.50441
9.81056 11.6354 -1.45211
11.4413 11.9902 -1.63787
11.361 11.9352 -1.62337
10.3238 11.0091 -1.80619
10.5974 11.2569 -1.8903
9.3354 10.6378 -1.63446
10.5992 11.6928 -1.08965
9.98068 12.1354 -1.13545
11.3412 12.5796 -1.00053
10.2953 11.2418 -1.3426
10.1056 12.359 -1.99429
10.8638 11.5022 -1.62604
9.51294 10.4865 -1.77279
11.786 12.2561 -1.7384
10.9966 11.5892 -1.89757
9.73198 10.6713 -2.17056
9.10011 10.5414 -1.84105
11.4516 12.1426 -1.39137
12.0734 12.5896 -1.77029
10.9132 11.9899 -1.02581
8.65804 10.7903 -1.94149
10.0284 10.9889 -1.46783
10.8924 12.098 -0.990532
12.0829 12.5613 -1.57721
10.9641 11.5515 -1.54821
12.0048 12.4806 -1.9895
11.3349 12.2116 -1.10168
12.5708 13.4509 -1.52257
12.4247 12.8696 -1.81435
9.81355 10.567 -1.88868
11.8998 12.3435 -1.98553
12.3471 12.7902 -1.64355
12.0583 13.0942 -1.05572
12.3459 12.7865 -1.74838
11.4217 13.301 -1.02757
12.0932 13.0785 -1.05912
8.83089 10.6396 -1.84441
10.9543 11.9599 -1.04532
10.7499 11.3628 -2.13108
10.0412 11.4959 -1.46987
12.3807 12.8052 -1.69064
9.67337 10.5688 -1.62533
11.2405 13.5833 -1.08757
12.5942 13.0639 -1.69826
12.1723 12.6857 -1.71846
10.0191 11.3784 -1.47578
11.2747 11.8092 -1.78984
11.5935 12.8918 -0.969734
12.3501 13.0393 -1.28157
11.2291 12.3785 -0.918285
11.4921 12.0429 -1.63352
11.3377 11.8751 -1.849
11.1798 11.8125 -1.46849
11.8425 12.4867 -1.39708
11.9348 13.1839 -1.0261
10.7446 12.5108 -0.989826
9.73686 12.4448 -1.21087
9.49156 10.5401 -1.60177
11.1041 12.0707 -1.17135
11.8629 12.9435 -1.06539
11.8065 12.5306 -1.33263
11.838 12.3064 -1.82632
10.496 11.3065 -1.48133
10.3018 10.999 -1.94729
12.1076 12.6094 -1.43843
12.3586 12.8538 -1.64691
9.67769 11.8754 -1.51561
10.5183 11.5324 -1.17152
9.7942 10.5376 -2.24352
9.70047 10.5347 -2.19451
11.5927 12.4938 -1.01521
12.538 12.997 -1.64793
10.9977 11.5949 -1.64653
9.33623 10.386 -2.14578
11.5546 12.7267 -1.00262
8.6044 10.9533 -1.76459
10.424 11.1023 -1.74521
9.77017 10.9257 -1.50647
12.4022 13.7192 -1.85189
10.242 11.2814 -1.30692
12.0467 12.534 -1.60155
10.0456 10.7854 -2.28041
10.0055 10.9436 -1.57079
12.1255 13.8162 -1.34462
11.7962 12.5066 -1.24934
11.7748 12.2778 -2.09928
11.3379 12.0783 -1.40045
10.5238 11.1066 -1.31171
12.1474 12.6347 -1.59581
10.9455 11.5832 -1.53999
11.2098 11.7988 -2.08508
11.6938 12.2475 -1.44566
12.3074 12.9806 -1.33841
12.1523 12.6849 -1.53039
9.95139 10.7527 -1.64847
11.3389 12.7379 -0.978535
10.6462 11.2556 -2.03827
12.6359 13.2868 -1.70831
9.8914 12.2771 -1.90978
9.54898 10.8473 -1.54077
10.8813 11.4956 -1.85226
11.0981 11.8439 -1.44095
11.6978 12.1812 -1.94693
9.49925 10.4269 -2.14975
10.9475 11.5433 -1.90043
12.4724 13.4677 -1.34605
10.3231 10.9701 -1.61548
11.577 12.0497 -1.88638
10.7913 11.4398 -1.89439
11.2112 12.4003 -0.929615
9.55992 10.4518 -1.75221
11.9874 12.4026 -2.35696
9.99594 10.7347 -2.14163
11.9926 12.8598 -1.04747
11.6664 12.4533 -2.10209
8.839 10.8537 -1.70477
10.3483 11.4231 -1.23229
11.9419 12.7908 -1.04369
