2.75948 6.7175 -1.13303
2.94646 6.44553 -1.088
3.00037 6.29886 -1.08869
3.05013 6.30173 -1.08969
2.76167 6.83511 -1.15786
2.9361 6.54013 -1.11681
2.99763 6.53815 -1.10892
3.08504 6.29248 -1.08696
2.16652 6.60205 -1.13523
3.06401 6.4968 -1.13853
3.07967 6.4964 -1.13587
3.18123 6.35452 -1.12488
3.15408 6.3736 -1.14907
3.51202 5.86395 -1.93338
3.17305 5.60696 -1.48249
2.75946 7.23846 -1.57231
3.12737 6.90237 -1.4997
3.06709 7.0592 -1.54003
3.25377 6.79861 -1.44284
3.20764 6.87457 -1.53664
3.164 7.01288 -1.55698
3.26414 6.84543 -1.53841
3.54376 6.18152 -1.35919
3.14049 7.07272 -1.67583
3.57938 6.13385 -1.40522
3.58315 6.27884 -1.40707
3.02925 7.18546 -1.80565
3.35744 6.81741 -1.59775
3.54527 6.12723 -1.44536
3.59354 6.18011 -1.44334
2.99042 7.24359 -1.89949
3.59659 6.27856 -1.44778
3.54897 6.49435 -1.49975
3.52522 6.24734 -1.50493
3.35893 6.83334 -1.64426
3.06267 7.20291 -1.89981
3.57648 6.22202 -1.49105
3.63896 6.36246 -1.49681
3.50768 6.64008 -1.6003
3.52327 6.62491 -1.59849
3.65163 6.24817 -1.49737
3.61423 6.392 -1.54656
3.59421 6.49539 -1.59738
3.64883 6.13788 -1.54224
3.59421 6.41495 -1.60569
3.68532 6.19217 -1.5084
3.64171 6.13266 -1.57355
3.69427 6.19604 -1.53833
3.3463 6.91147 -1.84695
3.66153 6.28278 -1.57434
3.3466 6.92545 -1.88811
3.68045 6.11456 -1.56007
3.64796 6.41269 -1.65252
3.69826 6.10916 -1.60305
3.60435 6.52475 -1.69205
3.69548 6.28339 -1.633
3.14838 7.1243 -2.14557
3.49605 6.72034 -1.83088
3.70084 6.18875 -1.63982
3.59996 6.55432 -1.78611
3.51112 6.73383 -1.90079
3.74472 6.189 -1.66713
3.7314 6.28653 -1.70069
3.50554 6.74673 -1.93285
3.74608 6.18524 -1.70049
3.47502 6.77881 -1.98278
3.64333 6.54562 -1.83647
3.31151 6.922 -2.1565
3.70348 6.41165 -1.79748
3.76982 6.27112 -1.71515
3.75703 6.19305 -1.7428
3.33507 6.92661 -2.21471
3.7426 6.09961 -1.74488
3.72562 6.39987 -1.79573
3.77127 6.28033 -1.75816
3.77402 6.11176 -1.75567
3.77837 6.18341 -1.75969
3.77921 6.28244 -1.78475
3.76421 6.12323 -1.79301
3.75954 6.30832 -1.83512
3.47713 6.72379 -2.15883
3.77414 6.12076 -1.80452
3.77803 6.30429 -1.87978
3.55403 6.68823 -2.18352
3.75557 6.13336 -1.8474
3.61865 6.52399 -2.07084
3.64316 6.51443 -2.08512
3.77977 6.13916 -1.89658
3.78937 6.2197 -1.92023
3.64333 6.53622 -2.1523
3.77538 6.32425 -1.94499
3.78813 6.32422 -1.99722
3.80522 6.31674 -2.00447
3.6655 6.52536 -2.18258
3.81065 6.29489 -2.03725
3.81 6.32327 -2.04833
3.79814 6.15259 -2.04892
3.77792 6.35217 -2.10637
3.75642 6.37683 -2.17162
3.79208 6.2601 -2.14745
3.78433 6.34262 -2.14671
3.76151 6.28372 -2.19104
3.793 6.14777 -2.14662
2.69737 5.38254 -1.18346
1.29434 3.93655 -1.93912
0.974045 3.64258 -2.24405
3.57924 5.83914 -2.38875
2.1664 4.83395 -1.50071
2.73215 5.43408 -1.16304
2.56316 4.98187 -1.73621
1.43944 4.04504 -1.88969
1.00116 3.65625 -2.10314
0.0407562 4.10208 -2.15633
1.8098 4.34137 -1.64184
0.783661 5.53964 -1.47768
2.63077 4.99371 -1.90156
3.40726 5.89023 -1.58005
0.433853 4.09076 -1.68653
2.07808 4.53848 -1.70358
2.38658 6.14926 -1.59543
0.974655 4.24951 -1.56334
0.664139 3.63608 -2.32582
0.0328369 4.76535 -1.74633
3.75821 6.29916 -1.78727
1.05458 3.7244 -2.17957
1.76228 6.33124 -1.13961
1.70497 4.20059 -2.08682
0.582504 3.68561 -1.84066
2.82152 5.67758 -1.45372
2.54233 4.92929 -1.79298
2.08638 6.3624 -1.84612
3.319 5.75195 -1.92924
3.04283 5.53244 -2.31381
1.93883 6.43271 -1.13083
2.01698 6.51334 -1.14399
2.66579 5.60858 -1.03119
2.19684 6.65152 -1.15039
2.3 6.58224 -1.13009
2.45866 6.3616 -1.08282
2.38794 6.52414 -1.1109
2.40672 6.51349 -1.11563
2.28456 6.72339 -1.16209
2.58452 6.28549 -1.05393
2.40588 6.63046 -1.12439
2.6331 6.14481 -1.05614
2.53996 6.444 -1.09056
2.43217 6.61316 -1.122
2.72922 5.60239 -1.08216
2.78848 5.74066 -1.02973
2.6458 6.23834 -1.04912
2.55573 6.41086 -1.08218
2.67296 6.13452 -1.0549
2.71271 6.38922 -1.01764
2.69786 6.20309 -1.04999
2.69768 6.35751 -1.05235
2.69557 6.31656 -1.05615
2.50322 6.69183 -1.1401
2.86473 5.61624 -1.04556
2.90071 5.68939 -1.04584
2.79419 6.0704 -1.03301
2.70674 6.34622 -1.075
2.65947 6.4545 -1.0844
2.46239 6.85507 -1.17286
2.67545 6.44827 -1.09203
2.6033 6.60638 -1.11459
2.50966 6.8157 -1.15956
2.78947 6.16724 -1.05972
2.77213 6.27292 -1.05931
2.7545 6.38831 -1.06955
2.8804 5.63626 -1.08899
2.93721 5.83374 -1.03994
2.87715 6.02252 -1.04713
2.94698 5.73972 -1.0401
2.89241 5.89755 -1.04771
2.8484 6.22842 -1.06123
2.82199 6.34763 -1.07281
2.7114 6.65488 -1.11738
2.89725 6.1976 -1.05769
2.84467 6.33218 -1.07022
2.95155 5.98383 -1.05069
2.90248 6.28943 -1.05667
2.66313 6.83688 -1.15986
2.87683 6.29166 -1.07452
2.90804 6.19778 -1.07234
2.98318 5.73816 -1.09543
2.99545 5.99362 -1.05663
2.98268 6.04971 -1.05856
2.71481 6.68823 -1.18628
3.02669 5.8627 -1.05732
2.9868 5.93839 -1.0616
2.94002 6.36887 -1.0677
2.9973 6.13589 -1.06274
2.91179 6.50394 -1.09425
3.00406 6.05753 -1.07602
2.98586 6.15173 -1.0742
3.05177 5.94833 -1.06015
2.99905 6.23605 -1.07332
2.89133 6.63779 -1.11545
3.01607 5.80161 -1.09622
3.0569 5.86069 -1.09206
3.03073 6.03226 -1.07411
3.03529 6.12009 -1.07058
2.99297 6.44562 -1.09133
3.05472 6.19745 -1.06523
2.98308 5.69226 -1.15003
3.09042 5.93314 -1.0902
3.09126 6.17032 -1.05844
2.00952 6.11618 -1.84885
2.91554 5.65182 -1.22341
3.10332 6.00577 -1.07899
3.08932 6.17728 -1.07837
2.97586 5.77106 -1.18318
2.82628 5.87988 -1.29514
3.1113 5.90347 -1.08162
3.14937 6.13559 -1.06425
2.73051 5.95154 -1.37242
2.06081 5.99542 -1.86945
2.79823 5.65189 -1.35288
2.9426 5.88974 -1.24039
3.15263 6.03757 -1.08117
2.91446 5.91809 -1.28057
3.05276 6.53555 -1.1469
2.94566 5.69531 -1.23696
2.92526 5.9097 -1.27228
3.18497 5.96115 -1.10325
2.18344 5.94186 -1.84229
2.9579 5.72528 -1.26433
2.99315 5.86569 -1.24457
3.10538 5.78693 -1.18221
3.24641 6.09238 -1.09759
2.93318 5.84494 -1.34444
3.00362 5.87466 -1.28611
3.0798 5.90341 -1.24323
3.23979 6.27655 -1.10297
3.21455 6.30344 -1.12094
2.22749 5.93887 -1.89466
3.29579 6.1449 -1.10237
2.40965 5.8403 -1.77908
3.02634 5.87085 -1.30914
3.19089 5.93643 -1.19151
3.04854 5.87238 -1.34829
3.24196 5.96475 -1.19355
3.29996 6.08331 -1.13696
2.8533 5.58582 -1.47026
2.98662 5.82703 -1.3904
3.19258 5.89011 -1.24651
3.31508 6.06808 -1.14158
3.09331 5.85147 -1.35599
3.33022 6.0668 -1.16127
2.99925 5.513 -1.41204
3.0045 5.51645 -1.43584
3.09129 5.70544 -1.39465
3.01671 5.58667 -1.42737
3.28487 5.98761 -1.21455
3.04922 5.56851 -1.411
3.28804 5.96228 -1.24734
3.10594 5.78726 -1.38948
3.30457 5.99344 -1.24774
3.03575 5.5058 -1.44997
3.22806 5.84109 -1.29797
3.192 5.79935 -1.35044
3.3367 6.03827 -1.24205
3.23895 5.85312 -1.34753
3.30452 5.96213 -1.29419
3.07434 5.56638 -1.4472
3.15732 5.73007 -1.39448
3.39706 6.05817 -1.24527
3.19244 5.7309 -1.39965
3.2205 6.76944 -1.40991
3.13431 5.61679 -1.44849
3.22603 5.78043 -1.35513
3.34795 6.00439 -1.29936
3.37086 6.07306 -1.2551
3.21359 6.79428 -1.44379
3.209 5.80362 -1.39075
3.09532 5.58057 -1.49374
3.31308 5.96652 -1.32558
3.34308 5.96051 -1.3456
3.08278 5.50665 -1.51103
3.09181 5.50906 -1.54888
3.38818 6.00052 -1.35286
3.43925 6.13205 -1.29642
3.23367 5.72641 -1.45489
3.10649 5.54352 -1.54943
3.35222 5.94968 -1.39063
3.3441 5.90146 -1.40096
3.15825 5.63306 -1.53297
3.35674 6.69577 -1.48251
3.14778 5.58673 -1.5507
3.06425 5.53247 -1.6261
3.34384 5.89877 -1.44743
3.40065 5.99585 -1.3899
3.3759 6.68384 -1.49017
3.19357 5.61389 -1.55342
3.49359 6.11423 -1.34457
3.1573 5.55423 -1.6041
3.40009 5.95355 -1.44506
3.09531 5.52121 -1.63824
3.34061 5.8541 -1.49813
3.49829 6.05096 -1.39259
3.265 5.73264 -1.53689
3.17645 5.55685 -1.61082
3.45274 5.99725 -1.45062
3.2581 5.65408 -1.58799
3.39796 5.89655 -1.49872
3.14525 5.50308 -1.6927
3.36198 5.84818 -1.53516
3.43762 5.94525 -1.50802
3.2774 5.65842 -1.60368
3.49268 6.0405 -1.4488
3.2482 5.60706 -1.64433
3.53262 6.58032 -1.54488
3.39825 5.88614 -1.54032
3.53978 6.0524 -1.44561
3.38156 5.84674 -1.55931
3.54974 6.11743 -1.44681
3.30055 5.65192 -1.64417
3.45609 5.95273 -1.53869
3.5999 6.28726 -1.48945
3.37245 5.77295 -1.60208
3.50771 6.00827 -1.53196
3.18388 5.50858 -1.74656
3.58139 6.11441 -1.49463
3.39589 6.86176 -1.8442
3.15268 5.48868 -1.79712
3.37956 5.6973 -1.65003
3.40964 5.76031 -1.64023
3.50096 5.94516 -1.59172
3.54294 5.99796 -1.55261
3.59941 6.11475 -1.52714
3.18597 5.50644 -1.79278
3.24107 5.58762 -1.74291
3.59048 6.0452 -1.54223
3.39566 6.88553 -1.88721
3.29201 5.60989 -1.7475
3.65634 6.2662 -1.54061
3.28513 5.62238 -1.74928
3.64861 6.39804 -1.59016
3.20055 5.50906 -1.839
3.39171 5.70758 -1.69506
3.35077 5.66141 -1.74194
3.43187 5.75369 -1.65769
3.44963 5.81027 -1.65627
3.67223 6.36768 -1.56931
3.24606 5.59036 -1.83032
3.54836 5.94119 -1.64077
3.64722 6.43039 -1.65146
3.34682 5.67062 -1.76244
3.47093 5.81445 -1.66739
3.67632 6.16501 -1.56424
3.59822 5.99268 -1.63758
3.18553 5.62543 -1.94965
3.50446 5.88046 -1.68643
3.09048 5.5946 -2.03106
3.16852 5.63052 -1.96329
3.11476 5.57996 -2.01446
3.23967 5.6698 -1.91418
3.65015 6.03198 -1.6407
3.15968 5.54849 -1.99344
3.59637 5.9574 -1.65368
3.49327 5.80551 -1.74751
3.59111 5.94107 -1.69872
3.18661 5.54053 -2.00485
3.29724 5.63217 -1.94209
3.41211 5.73099 -1.80085
3.44708 5.7486 -1.79134
3.28915 5.6376 -1.9168
3.68187 6.01611 -1.66012
3.47691 5.76477 -1.80671
3.52342 5.81522 -1.78535
3.59198 5.90125 -1.7395
3.69731 6.04218 -1.69007
3.50462 5.83987 -1.80055
3.55719 5.88391 -1.79809
3.68808 6.01828 -1.67787
3.4673 5.78018 -1.84349
3.4447 5.80527 -1.88649
3.52388 5.84109 -1.79462
3.65871 5.97079 -1.73541
3.25519 5.60065 -2.03896
3.30478 5.64468 -2.00066
3.39751 5.84335 -1.94785
3.40712 5.73874 -1.94245
3.53859 5.84991 -1.84354
3.63678 5.94571 -1.79101
3.69301 6.03714 -1.75577
3.29533 5.6424 -2.04041
3.43927 5.746 -1.95586
3.65678 5.97528 -1.79461
3.02513 5.78116 -2.39177
3.35184 5.69083 -2.00393
3.32768 5.65619 -2.04467
3.44505 5.79654 -1.94962
3.68025 5.97726 -1.79802
3.69937 6.04645 -1.79185
3.3022 5.64001 -2.09129
3.4818 5.79315 -1.99733
3.46347 5.92239 -2.03035
3.49242 5.90549 -2.03792
3.58463 5.9032 -1.9444
3.23163 5.55121 -2.1967
3.18953 5.67276 -2.27269
3.32841 5.66269 -2.13267
3.42299 5.75717 -2.04712
3.73495 6.04727 -1.84738
3.62383 6.58652 -2.16116
3.2606 5.6366 -2.20872
3.50443 5.79486 -2.04073
3.6962 6.00128 -1.89145
3.27557 5.61554 -2.21026
3.32755 5.67743 -2.15865
3.2415 5.54776 -2.24028
3.60265 5.91113 -1.99132
3.75624 6.40277 -2.00504
3.28342 5.61737 -2.25019
3.76924 6.2645 -1.96055
3.78082 6.37552 -1.99159
3.51767 5.80078 -2.07275
3.67728 5.93716 -1.94612
3.70084 6.00137 -1.94497
3.21606 5.5733 -2.32488
3.63705 5.93484 -2.00246
3.75078 6.06174 -1.94653
3.71985 6.00116 -1.95057
3.74109 6.08771 -1.95138
3.72816 6.00882 -1.99096
3.40186 5.73453 -2.25987
3.54506 5.8093 -2.1377
3.68826 5.96259 -2.04543
3.75006 6.09882 -1.98813
3.77141 6.08792 -2.00095
3.30846 5.61743 -2.34522
3.42683 5.82495 -2.31375
3.5473 5.82462 -2.19638
3.63327 5.94626 -2.14587
3.77458 6.08871 -2.04085
3.80087 6.28903 -2.07777
3.41925 5.72772 -2.28008
3.37843 5.8743 -2.39997
3.68529 5.96243 -2.09182
3.79977 6.1694 -2.04
3.27261 5.55157 -2.39875
3.30206 5.73965 -2.44678
3.73882 6.03641 -2.04726
3.79982 6.17749 -2.0947
3.69791 5.99323 -2.14439
3.78093 6.10138 -2.0887
3.28856 5.54498 -2.44309
3.32956 5.61319 -2.40099
3.35095 5.69614 -2.44099
3.54707 5.80783 -2.24511
3.74828 6.03958 -2.12595
3.647 5.96115 -2.23531
3.72679 6.05679 -2.18971
3.6226 5.97897 -2.27535
3.73854 6.07419 -2.20633
3.78279 6.1348 -2.18362
3.39383 5.67789 -2.45007
3.43965 5.73694 -2.4044
3.51663 5.78009 -2.37522
3.54276 5.78922 -2.39058
3.49352 5.71661 -2.47504
3.54823 5.78281 -2.44292
3.49748 5.73514 -2.49538
2.30998 4.7998 -1.68369
2.69113 5.05093 -1.95948
2.05376 4.97214 -1.07264
2.50023 4.93314 -1.73633
1.53957 4.18817 -1.59525
1.50401 4.38687 -2.25063
0.123703 4.39749 -1.74141
1.31837 3.92972 -2.23562
2.38222 4.81107 -1.63425
1.63751 4.41241 -1.50404
3.46718 5.92569 -1.97346
2.48192 5.06787 -1.37775
1.44571 4.19379 -1.49585
1.55107 5.98972 -1.78458
2.22519 6.37637 -1.85032
3.24759 5.64764 -1.92583
1.3925 3.95486 -1.9966
0.999863 3.65332 -1.78524
2.46275 5.21408 -1.23048
2.87517 5.62784 -1.06123
0.639252 4.32404 -1.56639
2.8101 5.18674 -1.79361
1.39407 3.9975 -1.94994
2.89804 5.39539 -1.57593
3.00935 5.39609 -1.74023
3.42189 5.71222 -1.75031
2.78981 5.15027 -1.94182
2.52902 5.01474 -1.49854
1.48972 5.22638 -1.15466
2.07193 6.54251 -1.1243
2.44321 4.98331 -1.49067
1.02859 3.67813 -2.19979
2.52678 5.17325 -1.46199
0.507706 5.07413 -1.60747
0.892105 3.60989 -1.96459
1.1228 5.62473 -1.224
2.00911 5.03967 -1.07712
2.10695 4.99973 -1.04518
2.14748 5.06186 -1.0352
1.7968 6.37048 -1.12534
2.20326 5.18842 -1.02408
2.2325 5.17194 -1.01536
2.20592 5.04938 -1.09488
2.26102 5.16251 -1.02508
2.29039 5.09323 -1.034
2.30336 5.13858 -1.03697
2.33168 5.13583 -1.04169
2.25656 5.10861 -1.09189
2.36583 5.33572 -1.01559
2.38481 5.18967 -1.04755
2.39606 5.25388 -1.04433
2.4381 5.30811 -1.01656
2.43631 5.38327 -1.01082
2.44786 5.38995 -1.03088
0.966995 5.63947 -2.07614
1.20966 5.61221 -1.90423
2.49973 5.4332 -1.0086
1.23506 5.60452 -1.90818
2.35497 5.14844 -1.13531
2.43361 5.2417 -1.05476
2.48511 5.36276 -1.01711
2.34047 5.08466 -1.15641
2.49547 5.34497 -1.04149
1.21118 5.51678 -1.96071
2.52429 5.42029 -1.01354
1.20802 5.52429 -1.98315
2.32436 6.57898 -1.11186
2.30548 5.1362 -1.18911
2.40166 5.19568 -1.13069
1.28017 5.59921 -1.95333
2.5437 5.41083 -1.01928
2.44264 5.18536 -1.14429
2.55125 5.4032 -1.04308
2.58524 5.39188 -1.04622
2.60475 5.53818 -1.01076
2.45174 6.4278 -1.08086
2.40038 5.14566 -1.19681
2.54103 6.33606 -1.05123
2.45505 5.25009 -1.14016
2.53781 5.35181 -1.08856
2.63364 5.43652 -1.04209
2.64117 5.51721 -1.02108
1.39673 5.55585 -1.9651
1.42422 5.54465 -1.9649
2.35048 5.12726 -1.27905
2.57559 5.34735 -1.11075
2.60519 5.24258 -1.0894
2.68654 5.56552 -1.01018
2.66444 6.21249 -1.03975
2.38362 5.09241 -1.25064
2.72475 5.53067 -1.01351
2.44788 5.14185 -1.24481
2.58194 5.35663 -1.14374
2.65352 5.44446 -1.08354
2.73981 5.53717 -1.03924
2.63525 6.53528 -1.09787
2.7317 5.69696 -1.03437
2.64691 5.39789 -1.14202
2.32944 5.00558 -1.36518
2.68614 5.44135 -1.10853
2.39398 5.12775 -1.34948
2.40372 5.09949 -1.34521
2.80417 6.19769 -1.04255
2.44354 5.10028 -1.34376
2.79454 6.35217 -1.07301
2.74745 5.48386 -1.10848
2.85884 5.90887 -1.02008
2.81494 6.32666 -1.06716
2.84196 5.80084 -1.03389
2.85783 5.9173 -1.03217
2.37779 5.14917 -1.39656
2.4955 5.13467 -1.30589
2.64343 5.42148 -1.19408
2.89189 5.77896 -1.02046
2.44193 5.13013 -1.39054
2.35207 4.93893 -1.45527
2.80443 5.54596 -1.14463
2.90416 6.23108 -1.06356
2.48241 5.16971 -1.37161
2.95181 6.05618 -1.0508
2.76979 5.49353 -1.16465
2.39125 4.92621 -1.46033
2.45358 5.12546 -1.44324
2.90964 6.67496 -1.12044
2.80977 5.63394 -1.14991
2.40594 4.99176 -1.45098
1.66615 5.81027 -2.11175
2.91624 5.70096 -1.08819
2.9998 6.39447 -1.08034
2.5934 5.91501 -1.3955
2.41635 4.91708 -1.46715
2.43019 4.98035 -1.46034
2.49284 5.10382 -1.44223
2.09236 6.04623 -1.83632
2.04817 6.20273 -1.87985
1.94547 6.06064 -1.95332
2.49385 5.03116 -1.45724
3.03606 5.97629 -1.05756
3.03004 6.22156 -1.06697
3.02736 6.36264 -1.08008
2.08101 6.18381 -1.88692
2.59387 5.92123 -1.41594
2.4252 4.9231 -1.51267
3.04657 6.09189 -1.07731
2.10603 6.28674 -1.88253
2.53732 5.09366 -1.45051
2.11316 6.15891 -1.87928
2.63217 5.90768 -1.44679
3.06612 6.1972 -1.08703
3.08211 6.4473 -1.09639
2.09023 5.95291 -1.90107
2.15376 6.14331 -1.88674
2.30859 6.06989 -1.71946
2.62303 5.92352 -1.43991
2.06493 5.97839 -1.93063
2.55141 5.13528 -1.44548
2.59325 5.20184 -1.4411
3.11687 6.25943 -1.07981
3.10626 6.02893 -1.07727
2.60756 5.85803 -1.49545
2.6252 5.27054 -1.42881
2.4912 4.98111 -1.54627
3.15134 6.10239 -1.08591
2.55122 5.08542 -1.48904
3.15936 6.21515 -1.08571
3.07965 5.88013 -1.14978
2.27115 6.04315 -1.85898
2.65396 5.25113 -1.4494
2.54959 5.03171 -1.54609
2.5928 5.09094 -1.4999
2.61406 5.13245 -1.48186
3.21071 6.15634 -1.08643
3.24016 6.25504 -1.09475
2.7058 5.30536 -1.44731
2.53386 5.88223 -1.64908
2.54643 5.01617 -1.53918
2.64674 5.14127 -1.49472
3.17935 5.98923 -1.10868
2.20831 6.02054 -1.9804
2.33517 5.99313 -1.8778
3.14935 6.65329 -1.2587
2.75771 5.44351 -1.44184
2.49518 5.84543 -1.74496
2.95128 5.60309 -1.29356
2.48802 4.92776 -1.65057
2.58965 5.84995 -1.67671
2.55168 5.03333 -1.59624
2.51779 4.98148 -1.62502
2.74878 5.56662 -1.5078
2.97522 5.58377 -1.29933
2.5423 4.98218 -1.64631
2.59483 5.03815 -1.59611
2.69908 5.17722 -1.52761
3.00571 5.9971 -1.38326
3.24059 5.98004 -1.18983
2.74406 5.23831 -1.505
2.50276 4.92535 -1.69018
2.6851 5.11429 -1.55862
2.89633 5.43469 -1.44221
3.02496 5.98129 -1.38686
2.69615 5.15094 -1.55313
2.73119 5.16348 -1.54449
2.52455 4.91132 -1.69643
3.32184 6.07184 -1.14173
2.9149 5.60007 -1.44044
2.83788 5.33978 -1.50458
3.29483 6.46164 -1.2504
2.68759 5.10739 -1.59941
2.85287 5.40176 -1.49343
3.08893 5.79364 -1.36138
2.98038 5.5361 -1.39931
2.79245 5.25357 -1.54302
2.78191 5.23154 -1.59854
2.85176 5.33282 -1.5401
2.65315 5.05319 -1.69442
2.61305 5.03799 -1.74044
2.58528 4.98557 -1.73637
2.73967 5.19281 -1.64832
2.58603 4.98416 -1.78853
2.8347 5.28949 -1.59134
2.79774 5.24008 -1.64591
2.54376 4.93512 -1.84379
3.17722 5.72562 -1.36929
2.93353 5.36331 -1.5455
2.7278 5.11163 -1.67237
2.94876 5.41159 -1.4935
3.00685 5.46744 -1.50435
2.7298 5.12332 -1.70568
2.96069 5.43292 -1.55209
3.18977 5.71643 -1.40604
2.96394 5.45261 -1.57611
2.89838 5.33411 -1.64587
3.3934 6.03104 -1.346
2.65288 5.04367 -1.8368
2.70241 5.08417 -1.79642
3.32834 5.89713 -1.35894
2.98598 5.41068 -1.54573
3.06618 5.5239 -1.53362
2.79686 5.18686 -1.73883
2.60727 4.99399 -1.88832
2.9527 5.39294 -1.63994
3.36978 5.95749 -1.36858
3.00768 5.4118 -1.58638
2.54372 4.93582 -1.95309
2.76067 5.13113 -1.79427
2.85783 5.29758 -1.72377
2.94435 5.34775 -1.65852
3.06004 5.46335 -1.59222
2.88922 5.29199 -1.74817
2.97473 5.37543 -1.6593
2.82016 5.17081 -1.76789
3.38591 5.89865 -1.44746
2.9429 5.35068 -1.74729
3.03667 5.42896 -1.65384
3.08488 5.46506 -1.64315
2.76607 5.14139 -1.85473
2.84872 5.24841 -1.79337
2.74529 5.108 -1.8847
3.45569 6.03693 -1.44531
3.56221 6.24872 -1.38985
2.55328 4.93243 -2.04105
2.76848 5.13742 -1.89919
3.42273 5.96005 -1.45165
3.51955 6.05566 -1.4076
3.0627 5.41821 -1.71007
2.65964 5.0358 -2.00584
2.73558 5.10144 -1.99537
3.49376 6.03558 -1.49977
3.4317 5.90137 -1.50249
2.87787 5.25412 -1.88581
2.94157 5.33731 -1.83942
3.03159 5.39334 -1.75206
2.84525 5.19949 -1.93579
3.02908 5.39212 -1.7945
2.62753 4.91956 -2.04838
2.89778 5.28714 -1.89501
3.12531 5.45889 -1.70543
3.46326 5.97052 -1.52723
3.47694 5.95001 -1.51942
3.09154 5.41425 -1.7573
3.13759 5.4649 -1.74413
2.79219 5.14896 -2.00356
2.88963 5.25348 -1.95248
2.93839 5.31668 -1.90098
2.98296 5.34601 -1.89878
3.25227 5.61957 -1.66539
2.84116 5.19623 -1.99538
3.09383 5.43365 -1.80601
2.57565 4.96652 -2.18867
3.39296 5.76358 -1.60905
2.74725 5.09821 -2.04574
2.69894 5.04565 -2.09468
3.53334 6.03348 -1.55527
2.80281 5.14993 -2.04425
3.26465 5.62769 -1.70377
2.63698 5.02695 -2.20667
2.69557 5.05518 -2.14492
-0.0989227 4.38748 -1.99468
2.91982 5.24744 -1.97448
2.94753 5.32648 -2.00093
3.09695 5.43967 -1.85583
2.64325 5.04141 -2.25426
2.75053 5.12265 -2.14207
2.80223 5.14957 -2.0889
3.24767 5.58499 -1.79018
2.59384 4.99655 -2.2897
3.0528 5.40338 -1.94246
2.64487 5.03879 -2.28341
2.6983 5.09064 -2.24842
2.8145 5.17285 -2.12518
2.8674 5.22037 -2.08542
3.16249 5.49124 -1.88852
2.76176 5.13071 -2.19448
2.8764 5.20358 -2.09095
2.9245 5.26526 -2.05318
3.07793 5.41098 -1.95197
3.53406 5.86429 -1.64864
3.60133 6.02737 -1.6478
2.92746 5.27585 -2.10086
2.61996 5.05319 -2.33488
2.69595 5.09274 -2.2825
2.91614 5.28235 -2.09628
3.01723 5.37631 -2.02179
3.07915 5.41443 -1.99007
3.12527 5.45944 -1.94814
3.03761 5.38849 -2.04827
3.30742 5.64835 -1.82218
2.82661 5.18561 -2.202
2.987 5.33685 -2.09608
3.70036 6.36838 -1.7101
3.09178 5.44498 -2.00041
2.81168 5.20352 -2.24289
3.10219 5.5379 -2.07665
2.88443 5.24509 -2.19452
3.0766 5.45282 -2.09702
3.52051 5.84149 -1.76471
2.84171 5.2106 -2.28165
2.88995 5.2569 -2.25317
2.87532 5.24844 -2.28735
2.91833 5.3215 -2.25154
3.15155 5.49896 -2.09078
2.94028 5.33109 -2.29194
3.01462 5.56393 -2.28512
3.04869 5.52164 -2.23712
3.49904 5.80408 -1.85101
3.06392 5.50644 -2.22662
3.72592 6.06616 -1.71869
3.16591 5.49698 -2.13724
3.76178 6.21094 -1.78085
3.11226 5.46515 -2.20038
2.31979 4.75119 -2.24001
3.00127 5.4032 -2.32512
3.76398 6.22617 -1.80128
3.04462 5.43729 -2.28214
3.2191 5.68417 -2.192
3.70027 6.05301 -1.82718
3.13422 5.45581 -2.19601
3.34322 5.78058 -2.15512
3.49922 5.98679 -2.08522
3.71059 6.0885 -1.88824
3.18257 5.49896 -2.25017
3.35661 5.79028 -2.19367
3.14287 5.47049 -2.30167
3.7289 6.07492 -1.89777
3.24681 5.57205 -2.23693
3.29543 5.64102 -2.24316
3.52919 5.927 -2.10582
3.53853 5.939 -2.14144
3.17464 5.47711 -2.39478
3.62408 5.92819 -2.06723
0.701172 3.91086 -1.6454
3.76192 6.14883 -2.0416
3.15294 5.48172 -2.3978
3.40396 5.78403 -2.27613
3.48555 5.7951 -2.19863
3.32524 5.64249 -2.308
3.4637 5.83578 -2.25669
3.33917 5.64423 -2.341
3.38429 5.70566 -2.30528
3.29686 5.59109 -2.39394
3.41544 5.80701 -2.34469
3.75797 6.08832 -2.14058
3.34584 5.67819 -2.40956
3.51089 5.8071 -2.28762
3.25963 5.52487 -2.4345
3.3134 5.59821 -2.44796
3.58952 5.83896 -2.24496
3.66475 5.98605 -2.22338
3.49353 5.74911 -2.34169
3.76962 6.11176 -2.18554
3.26692 5.54617 -2.50198
3.36664 5.65131 -2.43959
3.45085 5.70746 -2.44089
3.39233 5.64658 -2.54536
3.44656 5.69492 -2.49832
3.53102 5.73895 -2.42555
3.51874 5.78555 -2.49751
2.00084 6.15683 -1.86355
1.10599 3.80231 -2.14524
0.943619 5.65524 -1.34658
1.9514 4.4454 -2.2621
1.3606 4.60629 -1.46413
1.02605 3.66681 -2.16646
2.40674 4.88824 -1.63766
0.445084 4.44968 -1.61076
2.3979 4.80936 -1.98487
1.69063 4.41202 -1.34164
2.14581 4.95206 -1.14112
0.814117 3.75638 -1.78258
2.23787 5.17838 -1.02337
2.75839 5.65823 -1.36581
0.362061 3.74661 -2.31133
1.45836 6.04681 -1.13596
1.68405 4.483 -1.33991
1.41063 4.09808 -1.62954
2.25099 4.79193 -1.59867
1.10948 5.79001 -1.88119
2.14055 4.55316 -2.05179
1.29724 5.93015 -1.15849
0.891403 3.8924 -1.59783
0.288437 5.04025 -1.65986
0.260147 5.09512 -1.70954
0.283112 5.09052 -1.70744
0.286514 5.08969 -1.73025
0.394257 5.24887 -1.6514
0.33313 5.0517 -1.70523
0.434296 5.20407 -1.62489
0.611206 5.10425 -1.5306
0.581009 5.34293 -1.53162
0.533554 5.27243 -1.59135
0.559189 5.36563 -1.56278
0.740097 5.5524 -1.41457
0.790588 5.63696 -1.36935
0.824829 5.61417 -1.36351
0.840652 5.60541 -1.39381
0.778992 5.55875 -1.44736
0.688766 5.5192 -1.5183
0.638367 5.45386 -1.60022
1.0787 5.76007 -1.24465
1.13371 5.82935 -1.21311
0.959854 5.65909 -1.37524
1.02754 5.71555 -1.33047
0.649521 5.45789 -1.63182
0.644043 5.47195 -1.6361
1.40634 5.46637 -1.11512
1.32144 5.91119 -1.15902
1.35846 6.00958 -1.15441
0.702744 5.83655 -1.68738
0.735092 5.82071 -1.69514
0.698074 5.73453 -1.74261
0.89241 5.72897 -1.69253
1.71297 6.21924 -1.12257
0.850739 5.69257 -1.84361
0.849564 5.569 -1.84922
0.959259 5.741 -1.78325
1.60443 4.36621 -1.31762
1.68929 4.53238 -1.25459
1.84225 4.69437 -1.16034
1.85654 4.73492 -1.15926
1.78581 4.55789 -1.2143
1.63191 4.36429 -1.35326
1.82996 4.6069 -1.19892
1.68405 4.40683 -1.31105
1.95737 4.84601 -1.0969
2.00026 4.93414 -1.06327
1.64035 4.4014 -1.3477
1.99879 4.89481 -1.07683
1.74295 4.51294 -1.28045
1.99922 4.84695 -1.09235
2.03545 4.99115 -1.05979
1.89491 4.73416 -1.18842
1.99362 4.93533 -1.07765
1.83325 4.64285 -1.242
2.06262 5.05792 -1.05041
1.64288 4.35501 -1.39968
2.08644 4.94095 -1.05703
2.09135 5.04208 -1.05742
1.63132 4.37595 -1.40859
2.06004 4.89563 -1.06969
1.94087 4.77322 -1.17928
2.04704 6.47348 -1.12373
2.14148 5.08591 -1.04254
2.06152 4.9202 -1.12603
1.79143 4.5361 -1.35177
1.15239 5.55676 -1.95691
1.88985 4.48154 -1.34638
2.31972 6.42703 -1.08827
2.18733 5.00641 -1.1382
2.21088 5.07599 -1.12786
2.31209 5.14786 -1.08321
1.91585 4.53577 -1.3584
1.31682 5.82928 -1.9744
2.39209 5.29718 -1.01727
2.29332 5.1055 -1.14277
1.35092 5.81488 -1.99524
1.35495 5.67673 -1.97333
2.49362 6.3273 -1.06088
2.43944 6.68399 -1.13842
2.35117 5.11282 -1.08254
1.34486 5.84244 -1.99216
2.50629 6.31064 -1.06263
1.9248 4.39581 -1.40752
2.45119 5.51022 -1.04698
1.38271 5.54132 -1.98145
1.39095 5.80301 -2.03101
2.56425 6.21381 -1.05157
2.30449 5.11047 -1.17207
1.89137 4.38272 -1.44873
1.58824 5.34427 -1.82411
1.44398 5.62585 -1.99509
2.58427 6.18185 -1.04926
1.43201 5.77017 -2.02259
1.90097 4.43597 -1.49039
2.54965 5.50076 -1.02728
2.3895 5.116 -1.14726
1.90565 4.50327 -1.49976
1.49153 5.71564 -1.99533
2.61798 6.56815 -1.1077
1.85178 4.38885 -1.54845
1.91104 4.57889 -1.5013
2.57947 5.59378 -1.03551
1.48218 5.73343 -2.02013
2.42926 5.16733 -1.134
1.78951 4.33801 -1.59782
2.39151 5.10281 -1.20177
2.49791 5.19107 -1.12016
2.42787 5.11649 -1.20806
1.94846 4.53482 -1.54032
2.0295 4.67096 -1.49966
1.83119 4.34183 -1.64948
2.04933 4.65952 -1.50092
1.8575 4.40109 -1.63605
2.03578 6.38022 -1.79787
1.99471 4.59738 -1.54135
2.6899 5.46658 -1.04385
2.08525 4.70102 -1.49832
2.75514 5.51004 -1.04726
1.94594 4.48752 -1.5937
2.11034 6.44955 -1.78179
2.11241 4.7818 -1.49409
1.83824 4.34808 -1.69962
1.88351 4.40244 -1.65692
1.98338 4.49667 -1.59931
2.22026 6.4444 -1.72233
2.10362 4.69989 -1.53351
2.14668 4.77994 -1.50138
2.50696 5.15457 -1.23332
2.19254 4.80219 -1.46705
1.85106 4.35144 -1.74617
2.177 6.40524 -1.81909
1.94505 4.45013 -1.69855
2.51509 6.01846 -1.44089
2.09682 6.2471 -1.91737
2.2377 4.79669 -1.49506
2.63344 5.94516 -1.35636
2.09885 6.2514 -1.92662
2.12596 4.64267 -1.59949
2.19267 4.74753 -1.54829
2.29289 6.07562 -1.7521
2.394 6.15463 -1.64847
2.27972 4.82977 -1.49846
2.14247 6.19937 -1.91523
2.65288 5.95206 -1.39095
2.24507 4.79095 -1.54663
2.09821 4.58289 -1.64219
2.60239 5.91055 -1.43831
2.32979 4.88181 -1.49395
2.40295 5.07993 -1.45162
1.91139 4.3985 -1.79022
2.02855 4.48401 -1.69062
2.42705 6.16684 -1.67423
2.35339 4.94644 -1.47361
2.49129 5.14035 -1.39729
2.31413 6.07758 -1.78568
2.44913 6.12973 -1.66002
2.30292 4.83124 -1.53934
1.98288 4.45566 -1.74872
2.7437 5.94919 -1.35347
1.88353 4.35403 -1.8532
2.03026 4.49142 -1.74636
2.32654 6.0787 -1.80527
2.63992 5.91129 -1.49201
1.86009 4.34464 -1.84521
2.35002 4.88461 -1.53559
2.97862 5.84589 -1.13321
1.84698 4.3316 -1.89289
1.92856 4.40317 -1.80876
1.98004 4.44971 -1.79306
2.34193 6.0878 -1.84016
2.19589 4.69244 -1.64655
2.21719 5.98987 -1.93036
2.92491 5.65018 -1.15511
2.12595 4.58481 -1.70261
2.29703 4.76816 -1.57273
2.40398 4.93307 -1.53343
2.35179 6.09814 -1.89179
2.20052 4.69547 -1.69064
2.69856 5.80511 -1.45161
2.23752 4.74579 -1.64145
1.98715 4.46143 -1.84307
2.08444 4.53845 -1.75398
2.85234 5.75876 -1.30633
2.37437 4.8757 -1.55316
3.05917 5.88174 -1.13321
2.17305 4.64487 -1.70833
2.81915 5.68048 -1.32523
2.27948 4.71707 -1.63194
2.37854 4.86212 -1.54757
2.63487 5.89615 -1.62679
2.32866 4.76178 -1.61763
2.40495 4.86258 -1.58362
2.27803 4.73813 -1.69237
2.35818 4.83429 -1.63519
2.98117 5.62802 -1.21025
2.50986 5.86526 -1.78079
3.01009 5.7525 -1.22961
2.43655 4.90756 -1.54038
1.90155 4.3779 -1.97992
2.59219 5.88437 -1.73527
2.85568 5.69214 -1.38902
2.39467 4.78909 -1.59192
2.10948 4.55295 -1.84122
2.16005 4.59491 -1.79987
3.01155 5.78912 -1.26488
2.46332 4.90878 -1.58578
1.88963 4.34787 -2.00243
2.85434 5.72073 -1.41837
3.00363 5.84134 -1.30178
2.81293 5.6738 -1.46112
2.28421 4.74936 -1.74605
2.37827 4.8251 -1.65417
2.4366 4.86349 -1.63957
3.17613 5.89468 -1.161
2.95479 5.62769 -1.31236
2.50505 4.96786 -1.59068
2.39922 4.82611 -1.69247
3.00218 5.94174 -1.39078
3.23369 5.97366 -1.15937
2.14063 4.57953 -1.8475
3.01434 5.66006 -1.28628
2.03201 4.45438 -1.94731
2.35123 4.79684 -1.7409
2.67802 5.16031 -1.51553
2.0383 4.48843 -1.94289
2.13651 4.55527 -1.89366
2.30699 4.75491 -1.79213
1.97972 4.41681 -2.04628
2.71262 5.24466 -1.53045
2.18303 4.60538 -1.88956
2.25829 4.70938 -1.84157
2.5345 4.96259 -1.63268
1.89061 4.37607 -2.08953
2.13628 4.55814 -1.93793
2.57054 5.0145 -1.60878
2.28403 4.7099 -1.84339
2.20682 4.6503 -1.89471
2.89594 5.4072 -1.41384
3.1844 5.88144 -1.29448
2.46663 4.8678 -1.70966
2.48897 4.90091 -1.69464
1.92917 4.37488 -2.13899
2.19031 4.60495 -1.93954
2.37833 4.78946 -1.79889
1.98505 4.40961 -2.09217
2.46585 4.87775 -1.73277
2.29207 4.70978 -1.88676
2.54024 4.94205 -1.69767
2.24368 4.66464 -1.94635
2.92139 5.41464 -1.45998
2.48975 4.88556 -1.74718
2.00583 4.44565 -2.09869
2.29626 4.72879 -1.89862
3.26118 5.9213 -1.28802
3.33308 5.93878 -1.25819
2.35281 4.78467 -1.89282
2.49846 4.89102 -1.79487
2.11076 4.52585 -2.0855
2.23875 4.65155 -1.99174
2.44287 4.84198 -1.851
1.99043 4.44116 -2.1912
2.20847 4.62897 -1.99551
2.08913 4.5051 -2.09447
2.2195 4.60928 -2.01013
2.29782 4.72922 -1.99102
3.2525 5.88266 -1.38176
1.9736 4.4509 -2.24007
2.84268 5.26273 -1.60446
2.17268 4.56244 -2.05615
2.21198 4.62045 -2.03607
2.62917 5.02975 -1.74418
2.09679 4.53537 -2.15525
2.17068 4.56741 -2.07337
2.35135 4.78104 -1.99374
1.87007 4.43707 -2.38434
2.20113 4.59857 -2.09976
2.24179 4.64297 -2.09084
2.98016 5.43265 -1.56743
2.42265 4.80466 -1.93923
2.04189 4.51306 -2.28963
2.86354 5.2663 -1.64235
2.18471 4.56894 -2.12197
2.27518 4.68271 -2.09504
2.5065 4.89276 -1.90487
3.30307 5.88385 -1.44611
2.47775 4.85519 -1.93879
2.16275 4.58694 -2.18937
2.31068 4.73996 -2.09229
2.42976 4.81381 -1.98188
2.89049 5.28683 -1.69764
2.52818 4.89722 -1.94809
3.23953 5.71011 -1.49344
2.38446 4.78799 -2.05301
2.51855 4.92178 -1.94861
2.28261 4.659 -2.09792
2.33415 4.74173 -2.11009
3.27173 5.81946 -1.4915
3.37192 5.91147 -1.41762
2.22707 4.64905 -2.19884
2.96278 5.41803 -1.67903
2.28676 4.68146 -2.14496
2.72223 5.08014 -1.81192
2.96596 5.42554 -1.69348
2.97371 5.41943 -1.69701
2.66406 5.07977 -1.90933
2.72838 5.10056 -1.84778
2.16901 4.61264 -2.28178
2.29004 4.70047 -2.18739
2.48929 4.88397 -2.05081
2.65071 5.01041 -1.94385
2.15437 4.63348 -2.33655
3.00259 5.42651 -1.74916
2.26331 4.73676 -2.27248
2.70273 5.07974 -1.95419
2.95988 5.37241 -1.77662
2.33998 4.77872 -2.24545
3.33186 5.83572 -1.581
2.14784 4.76572 -2.47205
2.34056 4.79205 -2.29348
2.97548 5.37344 -1.80189
2.40239 4.83224 -2.24977
2.5199 4.88437 -2.11021
3.30336 5.72171 -1.58621
2.75453 5.12234 -1.94989
2.80759 5.173 -1.93698
2.7097 5.0867 -2.00784
2.52345 4.89716 -2.14093
3.36166 5.84991 -1.6302
2.45618 4.88214 -2.24592
2.52455 4.91022 -2.19201
2.4492 4.88818 -2.28592
3.54576 5.96066 -1.52774
2.52664 4.92804 -2.2461
2.47507 4.88327 -2.29362
2.91896 5.31503 -1.97941
3.13103 5.4462 -1.80254
3.31407 5.6496 -1.67462
3.2308 5.51239 -1.71431
2.53293 4.93909 -2.29094
2.82112 5.15836 -2.15016
2.93301 5.26193 -2.09887
3.56619 5.94211 -1.6731
3.62019 5.96265 -1.61563
3.02626 5.36005 -2.03591
3.52835 5.8649 -1.70765
2.77397 5.14786 -2.255
2.76875 5.17801 -2.30592
3.33054 5.73709 -1.92974
2.78423 5.16403 -2.294
3.09715 5.4884 -2.15224
3.31198 5.61438 -1.93399
3.46564 5.75781 -1.8243
3.5699 5.85327 -1.7486
3.00499 5.37344 -2.21085
3.47209 5.76328 -1.83719
2.90625 5.27023 -2.28273
2.89131 5.32962 -2.36232
3.2233 5.56519 -2.07517
3.48119 5.98486 -2.04282
3.60344 5.92639 -1.84481
3.69878 6.07062 -1.77826
3.13057 5.46771 -2.16832
3.02112 5.41113 -2.296
3.00995 5.47534 -2.37765
3.06998 5.50443 -2.31562
3.09909 5.48297 -2.33046
3.67976 5.96848 -1.82471
3.16635 5.47726 -2.23613
3.37291 5.77588 -2.18763
3.19662 5.49698 -2.29787
3.58022 5.97879 -2.16024
3.23222 5.72412 -2.47104
3.76271 6.11566 -2.02563
3.14171 5.56396 -2.51576
3.21632 5.52078 -2.37209
3.60733 5.9577 -2.17531
3.3886 5.70639 -2.32819
3.58275 5.8378 -2.19571
1.05191 3.83597 -1.68065
2.10072 4.9006 -1.05989
1.86095 4.39209 -2.07635
1.91159 4.35886 -2.13222
0.123077 4.93121 -1.71982
1.59076 4.15979 -1.64827
1.7135 4.21646 -1.83302
1.0444 3.77753 -1.69899
1.80942 4.48291 -1.37725
0.796188 4.53757 -1.57778
0.839264 3.84641 -1.74068
0.37886 3.88132 -1.78687
0.0438538 4.54831 -1.75423
0.150223 4.50748 -1.70576
0.191071 4.49017 -1.69786
0.181442 4.70279 -1.69685
0.295853 4.64178 -1.64071
0.207993 4.27615 -1.72023
0.193649 4.20761 -1.74128
0.314331 4.61304 -1.6394
0.358841 4.7009 -1.60762
0.222336 4.27478 -1.7347
0.242722 4.35123 -1.70534
0.359253 4.70258 -1.63557
0.359756 4.79532 -1.61086
0.294205 4.33914 -1.6879
0.373932 4.57663 -1.62079
0.358948 4.90695 -1.62217
0.296219 4.24307 -1.69567
0.390182 4.49619 -1.63439
0.409363 4.55478 -1.60905
0.389114 4.79434 -1.64889
0.300064 4.98196 -1.7043
0.252563 5.1297 -1.70109
0.346008 4.29761 -1.68222
0.379044 4.39273 -1.64317
0.426682 4.5481 -1.6145
0.223801 5.04086 -1.73921
0.247253 5.1398 -1.7334
0.304337 5.20697 -1.68442
0.330704 4.21982 -1.69315
0.331772 4.3306 -1.68969
0.39595 4.44812 -1.63957
0.266342 5.00955 -1.72333
0.439194 4.33987 -1.63266
0.336761 5.19351 -1.69025
0.447006 5.33951 -1.60518
0.390839 4.19196 -1.68174
0.475403 4.42474 -1.61788
0.444534 4.63858 -1.62213
0.469864 4.33365 -1.63
0.59552 5.44623 -1.5045
0.456894 4.15927 -1.65443
0.455658 4.75565 -1.6438
0.338547 4.96896 -1.72663
0.433517 5.00534 -1.64469
0.594009 5.44223 -1.54543
0.660736 5.50067 -1.4959
0.535889 4.20016 -1.6117
0.539566 4.30759 -1.60215
0.746292 5.54178 -1.4479
0.543915 4.10223 -1.64589
0.538742 4.30093 -1.62566
0.455338 4.88821 -1.66349
0.597748 4.25546 -1.58828
0.604446 4.35217 -1.58624
0.519119 4.61166 -1.63639
0.598282 4.89252 -1.58241
0.932983 5.72546 -1.3135
0.645767 4.44189 -1.56263
0.546494 4.59412 -1.62844
0.498169 4.74423 -1.67587
0.942703 5.70343 -1.30914
0.59021 4.75397 -1.58789
0.577454 5.39914 -1.61018
0.947205 5.72363 -1.33083
0.657257 4.30582 -1.56196
0.622726 4.74979 -1.59962
0.5504 4.03214 -1.67439
0.64209 4.23035 -1.59145
0.6409 4.33319 -1.57766
0.697372 4.38782 -1.55846
0.532135 4.69556 -1.64014
1.08476 5.83347 -1.25554
0.976715 5.70956 -1.36353
0.741989 4.34949 -1.55228
0.983047 5.7114 -1.37386
0.725845 4.28809 -1.5713
0.687027 4.52621 -1.6119
0.72934 4.68594 -1.56071
0.753876 4.64163 -1.54145
0.761292 4.5574 -1.56608
0.735031 4.13989 -1.59274
0.749283 4.04489 -1.58763
0.795395 4.14828 -1.56388
0.759018 4.01773 -1.6036
0.844055 4.24484 -1.55468
0.795593 3.99802 -1.58982
1.25224 5.14935 -1.24644
0.795212 3.90256 -1.60873
0.849426 4.33261 -1.58205
0.841187 4.1442 -1.57504
1.34753 5.12952 -1.22268
0.825867 5.47891 -1.66795
0.900467 4.10489 -1.55002
0.935471 4.0889 -1.55922
0.830978 5.63031 -1.69019
0.891266 5.69983 -1.65984
0.843216 3.89294 -1.62542
1.52673 5.13647 -1.13804
1.06194 4.43994 -1.4852
1.05351 4.54999 -1.51124
1.22697 4.66937 -1.38742
0.930756 3.86328 -1.6074
0.95726 3.93961 -1.58141
1.03021 4.14658 -1.52541
0.962814 4.26169 -1.58828
0.995819 4.04099 -1.56102
0.990631 5.93198 -1.68916
0.998184 4.24182 -1.58571
1.04797 4.04489 -1.54039
1.04765 5.85458 -1.65926
0.947342 3.85294 -1.64491
0.946487 5.70978 -1.73821
1.14638 4.68631 -1.51474
0.986969 3.93918 -1.58612
1.05547 5.86987 -1.69233
1.11061 5.9454 -1.6525
0.93692 3.87579 -1.65018
1.05647 4.20718 -1.57639
1.15599 4.48404 -1.51213
0.889664 5.68524 -1.84431
1.03526 5.79446 -1.74001
1.09782 4.00055 -1.54359
1.1317 4.07156 -1.53058
1.09035 3.9418 -1.59381
1.22975 4.73929 -1.53915
0.961929 5.61493 -1.86013
1.0448 3.9025 -1.64521
1.14093 3.9855 -1.55158
1.15245 4.04956 -1.5291
1.08308 5.92194 -1.80617
1.17628 5.95139 -1.7534
1.20653 4.1077 -1.51263
0.959 5.65509 -1.92342
1.18802 3.96503 -1.54818
1.23691 6.02673 -1.71815
1.1707 5.98212 -1.78727
1.19797 5.96176 -1.79832
1.24695 4.08029 -1.50998
1.26364 4.24689 -1.50268
1.04422 5.72809 -1.90779
1.10243 5.77744 -1.85199
1.14632 5.89209 -1.85382
1.24126 4.04291 -1.52804
1.24365 4.01218 -1.55167
2.49881 5.88339 -1.75937
1.20256 5.98947 -1.8426
1.8777 4.95862 -1.09276
1.29575 4.31259 -1.53696
1.13759 3.93854 -1.64661
1.30989 4.20859 -1.50213
1.20528 3.96106 -1.59643
1.38211 4.23309 -1.47048
1.47626 4.50119 -1.42587
1.33144 4.108 -1.51286
1.40898 4.20535 -1.44999
1.50668 4.37402 -1.39098
1.56203 4.39874 -1.34492
1.58714 4.46249 -1.33205
1.10037 3.8064 -1.69501
1.75156 4.55103 -1.23743
1.15443 3.88669 -1.64523
1.80453 4.65463 -1.16905
1.27866 4.07861 -1.56116
1.43486 4.19461 -1.45854
1.48537 4.23563 -1.44426
1.55122 4.31284 -1.35709
1.59947 4.34958 -1.34195
1.70615 4.51273 -1.25384
1.8876 4.87631 -1.1513
1.90825 4.84204 -1.13654
1.34964 4.1059 -1.5419
1.54567 4.29907 -1.39455
1.79802 4.60611 -1.24014
1.33339 4.04599 -1.55706
1.55565 4.3335 -1.3976
1.17851 3.84998 -1.66148
1.71761 4.5206 -1.29785
1.38274 4.09848 -1.56199
1.4937 4.24271 -1.49258
1.58583 4.33487 -1.44471
1.15511 3.78864 -1.74617
1.39554 4.09216 -1.59596
1.92924 4.75821 -1.20345
1.40771 4.17218 -1.58443
1.70189 4.49341 -1.37616
1.3454 3.97922 -1.6483
1.44949 4.1442 -1.59286
1.55144 4.28989 -1.49113
1.22307 3.82822 -1.70915
2.0634 4.88275 -1.12415
1.24008 3.8414 -1.74154
1.36127 5.76312 -1.97873
1.1584 3.7966 -1.78985
1.62279 4.3183 -1.46505
1.43471 4.08231 -1.61411
1.50249 4.18753 -1.58556
2.20674 5.01907 -1.06375
1.34447 3.94614 -1.69662
1.39188 4.02713 -1.65011
1.44159 4.08786 -1.65126
2.29556 5.32718 -1.05788
1.29811 3.86908 -1.71741
1.59532 4.27676 -1.53609
2.30002 5.19666 -1.08842
1.3914 3.98425 -1.69553
1.80203 4.39212 -1.3823
1.466 5.87 -2.05654
1.59254 4.23996 -1.55527
1.83939 4.43274 -1.34872
1.29706 3.88535 -1.79781
1.5815 4.22598 -1.59698
1.49457 5.83923 -2.05579
1.62135 4.2565 -1.55095
1.66595 4.40787 -1.5438
2.40451 5.28381 -1.03474
1.5154 5.80795 -2.04321
1.84392 4.3895 -1.3949
1.38863 3.95596 -1.71073
1.5273 5.79785 -2.04662
1.28233 3.84641 -1.80167
1.40475 3.95535 -1.74257
1.48354 4.08652 -1.7018
1.50481 4.14328 -1.69057
2.2854 5.13193 -1.14466
2.32848 5.18436 -1.11568
2.46559 5.34116 -1.02676
1.44044 4.03995 -1.74005
2.20052 5.23703 -1.26809
1.27455 3.82675 -1.8412
1.55124 4.1752 -1.64479
1.59071 4.20438 -1.60849
1.24422 3.85825 -1.89232
1.19164 3.89273 -1.9693
1.42325 3.96606 -1.75627
1.10297 3.86911 -2.06396
1.27078 3.9227 -1.90932
1.35814 3.944 -1.83981
1.7075 4.3053 -1.59304
2.44748 5.2998 -1.10228
1.24684 3.93195 -1.95296
1.41551 3.97891 -1.79075
1.43428 3.96097 -1.79645
1.51328 4.06891 -1.73874
2.17609 5.29599 -1.44227
1.58607 4.17575 -1.70715
1.64355 4.20032 -1.69138
1.23581 3.85092 -2.0002
1.89059 4.3783 -1.49012
1.95491 4.60239 -1.49652
1.33833 3.94736 -1.95068
1.41194 4.01114 -1.88145
1.53886 4.08548 -1.79835
1.83784 4.35251 -1.54292
1.90445 4.49323 -1.55595
2.40407 6.17969 -1.53501
1.23022 3.79697 -2.01479
1.39168 4.04037 -1.94037
1.55482 4.12842 -1.79668
2.29851 6.37592 -1.71643
1.23494 3.79922 -2.04729
1.49899 4.04001 -1.84306
1.5943 4.14172 -1.79133
1.62128 4.16281 -1.73443
2.33961 5.07053 -1.29522
1.5007 4.01752 -1.82569
1.38077 3.95425 -1.95984
1.28627 3.853 -2.03159
1.34511 3.90677 -1.99462
1.54393 4.08414 -1.84928
1.61713 4.18103 -1.7812
2.36365 5.00076 -1.26034
2.01645 4.67941 -1.52791
1.63522 4.16409 -1.78786
1.77454 4.28241 -1.66028
1.86124 4.47552 -1.63449
1.2399 3.80276 -2.09055
1.68463 4.207 -1.75645
2.28311 5.14359 -1.43219
2.27695 6.32761 -1.83246
2.28775 6.31406 -1.83528
1.73862 4.25748 -1.74197
2.36559 5.07199 -1.33175
1.30312 3.89441 -2.0927
1.70235 4.215 -1.79795
2.3958 5.04218 -1.34369
1.55779 4.08832 -1.89196
1.33192 3.92236 -2.08949
1.65291 4.18637 -1.84805
1.22774 3.82697 -2.16344
1.4006 3.9892 -2.04671
1.49068 4.09662 -2.00597
1.80128 4.30594 -1.7423
1.25626 3.88672 -2.16102
1.54594 4.10376 -1.92646
1.61089 4.13602 -1.90292
2.36903 6.12634 -1.7889
2.04416 4.58774 -1.60256
1.48656 4.04721 -2.00814
1.90749 4.43991 -1.68005
1.22749 3.83035 -2.19768
1.34042 4.02579 -2.19207
1.45213 4.01291 -2.03582
2.35823 5.0285 -1.41711
2.40891 5.05194 -1.37063
2.39488 6.15741 -1.84548
2.50798 5.86667 -1.59921
2.37856 5.02307 -1.43931
2.57054 5.92419 -1.56179
1.45204 4.03329 -2.09439
2.41789 5.08105 -1.41064
2.03157 4.51755 -1.65169
1.50075 4.0441 -2.04036
1.69653 4.22745 -1.89664
1.74234 4.25607 -1.84176
1.34151 3.93027 -2.19175
2.11061 4.6481 -1.63805
1.73227 4.24646 -1.88755
1.87973 4.35492 -1.75252
2.08409 4.5625 -1.62659
2.2036 4.73917 -1.59118
1.69402 4.20563 -1.93415
2.39897 5.02975 -1.47388
2.45128 5.07443 -1.44887
2.4903 5.14011 -1.42397
2.17595 4.69519 -1.60403
1.53214 4.06091 -2.08479
2.34085 4.86816 -1.5036
1.73524 4.23837 -1.94857
2.01103 4.48526 -1.74509
1.54692 4.09622 -2.08878
1.63498 4.1619 -2.05029
1.78389 4.26685 -1.89478
2.58278 5.89932 -1.71457
1.25755 3.82846 -2.30483
1.40004 3.99478 -2.24175
1.50214 4.056 -2.14152
1.96423 4.44052 -1.79135
1.47209 4.03305 -2.18682
2.3252 4.80679 -1.55454
1.74126 4.24396 -1.99291
1.2518 3.93549 -2.44604
1.40907 4.00806 -2.29601
1.98273 4.47476 -1.85074
1.26079 3.84521 -2.39139
2.06784 4.5499 -1.75579
1.5873 4.12784 -2.15088
1.85506 4.33438 -1.95132
2.62534 5.85565 -1.73411
1.79198 4.2966 -1.99971
1.36754 4.15762 -2.45826
2.60023 5.23654 -1.51238
1.95403 4.4205 -1.89288
2.72803 5.63281 -1.55125
1.44116 4.00189 -2.33548
2.23691 4.69562 -1.69144
1.39397 4.13638 -2.4384
1.55373 4.09265 -2.2473
1.71051 4.22501 -2.09777
2.66393 5.26688 -1.48139
1.46837 4.06699 -2.33714
1.34485 3.88708 -2.44786
1.40579 4.02573 -2.40685
1.60788 4.14243 -2.24661
1.4054 4.03098 -2.45093
1.88626 4.34552 -2.0445
1.74564 4.25153 -2.15044
1.78642 4.26364 -2.13531
1.40103 3.94107 -2.45017
1.44496 3.99634 -2.45047
1.61905 4.14197 -2.28042
1.49065 4.0351 -2.39968
1.62212 4.14963 -2.2957
1.29587 3.82666 -2.53715
2.05069 4.4953 -1.99439
2.10263 4.53384 -1.94237
1.8441 4.31824 -2.14228
2.6918 5.19296 -1.59146
1.40472 3.94138 -2.50953
1.63072 4.26019 -2.38756
1.84355 4.33038 -2.14632
1.897 4.3718 -2.13444
1.95976 4.41055 -2.09177
1.45894 3.98566 -2.48257
1.55147 4.04004 -2.44562
1.85927 4.33902 -2.1914
1.44691 3.95169 -2.49771
1.73689 4.25882 -2.30915
2.71225 5.2095 -1.63069
2.15077 4.58017 -1.99426
1.85239 4.35199 -2.25469
1.59119 4.09424 -2.43201
1.97595 4.40823 -2.13802
2.87471 5.32343 -1.51405
1.84439 4.35669 -2.30352
2.41281 4.8515 -1.89525
2.75032 5.2084 -1.67718
2.47691 4.86368 -1.8437
2.8017 5.29376 -1.67114
2.2403 4.64819 -2.04215
2.28761 4.71591 -2.03061
2.44142 4.85663 -1.94438
2.14903 4.55804 -2.13686
2.89192 5.30344 -1.65115
2.44215 4.87424 -1.96816
2.48332 4.85229 -1.89969
2.04167 4.52115 -2.29278
2.70294 5.06494 -1.77067
2.45854 4.87976 -1.99962
2.81343 5.24643 -1.78645
2.27921 4.66284 -2.12134
2.16684 4.62656 -2.25885
2.18253 4.63947 -2.29374
2.54485 4.90964 -1.99731
2.34799 4.81973 -2.29151
2.29147 4.82431 -2.41145
2.42177 4.83298 -2.23598
2.52753 4.9209 -2.15783
2.48363 4.90317 -2.24894
2.86594 5.23148 -1.98295
2.44531 4.86661 -2.32225
2.82132 5.16324 -2.01465
2.67059 5.00925 -2.12787
2.50868 4.96362 -2.36541
2.57344 5.00845 -2.33485
2.75635 5.10956 -2.19058
2.72038 5.12057 -2.32224
3.01817 5.3895 -2.15129
3.07501 5.41754 -2.09009
3.21912 5.5748 -2.07215
2.94066 5.37592 -2.36329
3.2545 5.69345 -2.19032
3.2215 5.51639 -2.33411
3.16972 5.46756 -2.39407
3.34717 5.62076 -2.39531
0.0695801 4.3078 -1.76927
0.88974 4.34036 -1.58767
0.387085 3.84601 -1.76652
0.30687 3.96292 -1.76755
0.177658 4.03973 -1.84334
1.15271 4.39432 -1.52753
-0.112778 4.9549 -1.86463
-0.0344238 4.7193 -1.80083
-0.0268402 4.84369 -1.80019
0.0430145 4.6387 -1.75046
0.144485 4.66513 -1.70504
0.0848541 4.48636 -1.74536
0.138611 4.43488 -1.71617
0.20665 4.86349 -1.68609
0.22345 4.98401 -1.6833
0.230133 4.59012 -1.68175
0.194443 4.39871 -1.72228
0.315491 4.74713 -1.64018
0.290054 5.06464 -1.68025
0.364502 5.27176 -1.64843
0.191757 4.28836 -1.73265
1.14363 4.77289 -1.50438
0.304001 4.50235 -1.64755
0.339188 4.74008 -1.63026
0.389542 4.79831 -1.61374
0.0346832 4.23416 -1.84227
0.501282 5.40247 -1.5832
0.457184 5.31552 -1.62107
0.711426 5.55377 -1.43609
0.297546 4.29327 -1.68027
0.341248 4.39206 -1.65501
0.329147 5.05563 -1.72236
0.379654 4.98975 -1.6905
0.254532 4.14575 -1.73581
0.312164 4.2023 -1.6892
0.86467 5.63602 -1.33963
0.394928 4.35333 -1.63651
0.135727 4.14487 -1.84756
0.432846 4.92734 -1.66835
0.283737 4.12881 -1.73002
0.3918 4.29535 -1.64677
0.48204 4.72083 -1.61931
0.306931 4.10822 -1.73259
0.814575 5.59415 -1.4229
0.369675 4.14505 -1.66762
0.389679 4.25922 -1.67796
0.453964 4.28546 -1.62563
0.310898 4.10159 -1.70667
0.495468 4.35483 -1.60899
1.10466 5.78851 -1.23799
0.598679 4.85464 -1.58358
0.588196 4.48154 -1.57435
0.650116 4.80392 -1.56099
0.300583 4.00223 -1.75233
0.385025 4.03702 -1.7017
1.12956 5.7757 -1.26057
0.645065 4.80835 -1.58077
0.677689 4.90613 -1.57112
1.05449 5.78098 -1.35016
1.13579 5.80243 -1.29067
0.402588 3.95221 -1.7327
0.750259 4.95288 -1.54301
0.614685 4.61151 -1.63173
0.638351 4.58441 -1.62116
0.0577545 4.08954 -2.098
0.740692 4.58337 -1.56995
0.588287 3.98755 -1.65106
0.587082 4.04984 -1.65319
0.102097 4.0386 -2.10086
0.488144 3.88885 -1.7404
0.237167 3.93878 -1.93988
0.699265 4.08755 -1.58693
0.807632 4.51431 -1.55873
0.499527 3.80518 -1.75134
0.848495 5.61572 -1.69196
0.306168 3.88242 -1.93904
0.520416 3.87234 -1.73012
0.59848 3.90216 -1.68316
0.650528 3.95193 -1.65524
1.29372 5.10907 -1.24314
0.547562 3.85318 -1.72579
0.986618 5.79102 -1.65557
0.690536 4.00098 -1.6065
0.879471 5.63113 -1.75109
0.536224 3.78885 -1.75848
0.911392 4.40704 -1.5418
0.251923 3.84821 -2.07991
0.848846 3.6102 -2.26312
0.611267 3.81317 -1.73002
1.10323 5.88013 -1.69545
0.689224 3.83463 -1.69475
0.96875 5.77469 -1.81816
1.04274 5.83023 -1.76844
1.41431 5.13425 -1.26857
0.992966 5.76089 -1.83662
1.1916 5.95578 -1.68129
0.878738 4.03116 -1.58098
1.05011 4.4845 -1.5055
0.678177 3.77228 -1.73947
1.05362 5.84616 -1.79828
0.799149 3.90952 -1.62495
0.910812 4.09995 -1.5715
0.954285 4.16107 -1.53653
0.62381 3.7316 -1.78229
0.977524 5.81668 -1.87297
0.682404 3.75204 -1.74344
1.2916 6.05527 -1.69775
1.00356 4.20953 -1.53943
1.00221 4.30771 -1.55691
0.954895 4.05142 -1.55514
1.44749 6.09879 -1.5482
1.08647 4.33618 -1.51416
0.87529 3.85947 -1.61614
1.15639 5.95502 -1.83327
0.957825 4.06738 -1.58517
1.45689 6.13354 -1.58433
1.05971 4.14282 -1.51231
0.798111 3.80344 -1.69933
0.848633 3.84134 -1.64988
1.08754 4.23019 -1.52429
0.655624 3.82355 -1.84414
1.31456 6.0611 -1.7318
1.47859 6.12601 -1.60622
1.07735 4.12473 -1.50887
1.10413 4.33096 -1.53314
0.648727 3.75757 -1.89178
0.786896 3.78693 -1.75203
1.07359 5.71948 -1.90252
1.12901 4.29236 -1.51145
0.567459 3.72137 -1.92962
1.08136 5.71875 -1.91223
1.33932 6.09677 -1.79181
1.14377 4.28751 -1.53946
1.25186 4.64981 -1.50757
1.21397 5.89542 -1.85459
1.50148 6.13632 -1.64193
1.18925 4.33386 -1.49415
1.23647 4.68719 -1.53156
1.28053 6.03333 -1.8623
1.43759 6.07742 -1.70807
0.495682 3.68146 -2.0369
1.26288 4.65131 -1.52511
1.16559 5.84506 -1.94551
0.988083 3.86172 -1.60966
0.792969 3.79349 -1.78298
0.899506 3.79971 -1.70325
0.895966 3.84695 -1.69144
1.55302 6.04099 -1.6395
1.19246 4.24152 -1.53024
0.559662 3.65811 -1.98649
1.2999 4.59937 -1.51436
0.842941 3.80377 -1.75668
0.87326 3.82364 -1.75242
0.947922 3.82944 -1.67637
1.25488 5.90982 -1.92085
0.988419 3.87912 -1.64952
1.31367 6.01773 -1.89163
0.529175 3.68829 -2.05946
1.25882 5.94223 -1.95512
0.567062 3.65604 -2.02484
1.39722 4.7305 -1.4812
1.45847 4.76031 -1.44081
1.48766 4.8613 -1.427
1.31746 6.07239 -1.94266
1.2247 4.20023 -1.51604
0.582611 3.64798 -1.99664
0.693817 3.73294 -1.92949
1.45926 4.56058 -1.38203
0.950256 3.75211 -1.70079
1.5081 4.80893 -1.40395
1.26823 5.95093 -1.97523
1.5118 5.99832 -1.74212
1.45161 5.9498 -1.81725
1.53047 4.79306 -1.41869
0.994949 3.80051 -1.69406
1.46759 5.93329 -1.8243
1.62833 5.98532 -1.6937
0.84024 3.77951 -1.85097
1.15475 3.98242 -1.58564
1.20323 4.01074 -1.55107
0.682449 3.6412 -1.95026
1.48125 4.58484 -1.43912
1.50899 4.68835 -1.43596
1.24681 4.08942 -1.54196
1.34726 4.29047 -1.50553
1.51953 4.67136 -1.43296
0.633331 3.6297 -2.04956
0.699905 3.65567 -1.99594
1.53906 4.62613 -1.41322
0.996048 3.74399 -1.73911
0.384369 3.74704 -2.34666
1.41145 4.46259 -1.50666
1.46048 4.50137 -1.46806
0.832596 3.71481 -1.87971
0.424805 3.72031 -2.32173
0.841461 3.63364 -1.89113
1.7321 4.63675 -1.26085
0.44075 3.70935 -2.31552
1.39221 4.21899 -1.47409
1.74416 4.60403 -1.24872
1.79672 4.68314 -1.25026
1.49777 4.26791 -1.39212
0.84462 3.63312 -1.93334
1.51157 4.28433 -1.43239
1.05067 3.74539 -1.74868
1.30956 4.05557 -1.58872
0.657715 3.63077 -2.14438
1.75885 4.62991 -1.28984
0.512512 3.66382 -2.30563
1.35307 4.11075 -1.5779
0.512878 3.66705 -2.32052
1.10864 3.78873 -1.73593
0.938583 3.65646 -1.9006
0.547745 3.64966 -2.33776
1.45749 4.202 -1.54928
0.902115 3.63742 -1.93919
1.43027 4.13837 -1.55597
0.706863 3.60574 -2.14625
0.859207 3.62894 -1.99248
1.29025 3.96353 -1.61446
0.882553 3.62485 -1.99312
1.73053 4.70459 -1.45558
1.2623 3.94553 -1.67385
1.01109 3.68155 -1.8926
1.64604 4.60724 -1.5396
1.1385 3.75043 -1.79435
