-22.7554 -0.546295 -1.87154
-21.7816 -0.973938 -2.5262
-23.8294 -0.161652 -2.74625
-21.8083 -0.771637 -2.14711
-21.4864 -0.76416 -2.68924
-21.507 -0.741821 -2.79123
-21.5152 -0.814026 -2.79085
-21.3697 -0.485626 -2.65762
-21.5662 -0.698242 -2.44139
-21.998 -1.06985 -2.24554
-21.4899 -0.303284 -2.44425
-22.7755 -1.11978 -2.98764
-22.0613 -1.10733 -2.27939
-22.211 -1.24301 -2.28003
-22.5103 -0.339233 -1.86335
-21.6146 0.0925598 -2.55344
-22.5065 -1.30612 -2.81361
-22.4482 0.892975 -3.03522
-22.6777 -1.2038 -2.70919
-23.7367 -0.261536 -2.89506
-23.2115 1.5744 -2.42927
-21.3929 -0.484711 -2.62709
-22.1741 -0.373718 -1.86763
-22.4373 -1.3248 -2.83903
-24.0439 0.0379028 -2.91234
-21.7905 0.256683 -2.94274
-21.3611 -0.490509 -2.79142
-22.048 -1.13815 -2.23372
-22.9747 -0.973633 -2.86169
-21.8631 -1.15601 -2.6477
-22.0592 -1.19351 -2.54311
-22.7976 -1.06534 -2.44246
-21.7538 -0.760895 -2.19492
-21.619 0.115784 -2.95502
-21.7231 0.123535 -3.1399
-22.1986 -1.23596 -2.33047
-23.0473 -0.888947 -2.95385
-21.9556 -1.2485 -2.75068
-21.9306 -0.936371 -2.20206
-21.7127 0.109314 -2.35122
-21.9711 -1.14261 -2.53707
-21.9629 0.470306 -2.44022
-21.4707 -0.506683 -2.44112
-21.4214 -0.516174 -2.91838
-22.1618 -1.29065 -2.56967
-21.3613 -0.267303 -2.64899
-22.6819 -1.17099 -2.94413
-22.0806 -1.04697 -2.21501
-22.1122 -1.24841 -2.54883
-21.5022 -0.608124 -2.63059
-24.006 2.38626 -2.95137
-21.6815 -0.646149 -2.22401
-23.7366 1.85394 -3.22412
-21.5853 -0.697601 -2.96735
-21.6149 -0.741638 -2.44585
-22.2067 0.334534 -1.87012
-21.4997 -0.094696 -2.99535
-21.4945 -0.681 -2.65516
-22.0433 -1.29987 -2.88033
-22.1982 -1.05334 -2.15
-21.9805 -1.133 -2.59634
-21.7237 0.185303 -2.39194
-21.9689 -1.12326 -2.48706
-22.7198 -1.168 -2.89586
-21.7778 0.0578918 -3.18587
-21.7001 -0.804474 -2.26582
-21.5096 -0.544403 -2.34119
-21.4396 -0.528839 -2.62851
-22.2524 -1.39828 -2.7213
-22.2287 -1.40079 -2.75105
-21.5438 -0.650513 -2.3262
-21.5489 -0.696442 -2.48946
-21.4623 -0.00726318 -2.44064
-22.0191 -1.21667 -2.58884
-22.1199 -1.32681 -2.80433
-23.0775 1.68164 -2.2805
-21.6543 -0.821991 -2.60593
-24.6456 0.624451 -2.59457
-22.6537 -1.07477 -2.24358
-21.4346 -0.350739 -2.38851
-21.5438 -0.559113 -2.34873
-22.8438 -1.05927 -2.77297
-21.6582 -0.830475 -2.34661
-22.6736 -0.577515 -1.89482
-23.413 1.85971 -2.83582
-22.1564 -1.25491 -2.50283
-21.7867 -0.92337 -2.31534
-22.7884 1.23297 -3.07433
-21.8028 -1.01804 -2.5928
-22.7228 -1.03354 -3.00918
-21.5816 -0.00262451 -2.99649
-21.3664 -0.230682 -2.83722
-21.934 -1.07761 -2.43617
-21.6242 -0.805267 -2.41583
-21.4553 -0.460938 -2.39302
-21.9731 -1.27689 -2.61087
-21.6114 -0.747589 -2.39987
-22.9397 -0.996063 -2.89111
-21.4489 -0.54361 -2.63921
-21.9917 -0.410065 -1.91835
-23.1135 -0.806732 -2.73493
-22.2996 -1.26343 -2.28542
-22.3269 0.80191 -2.94653
-21.9648 0.446503 -2.77875
-22.2504 -1.27426 -2.52185
-21.5239 -0.64682 -2.59454
-21.7353 0.217194 -2.44217
-23.3008 -0.184082 -1.86988
-22.4931 -0.840759 -1.93871
-22.2776 -1.26016 -2.30584
-21.5435 -0.659515 -2.49821
-22.2265 -1.33441 -2.79428
-21.6254 -0.630096 -2.27192
-22.1315 -0.614777 -1.90593
-21.7271 0.230713 -3.23241
-22.8564 1.30542 -2.87526
-22.1374 -1.05023 -2.19242
-21.8896 -1.1814 -2.64193
-21.8395 -1.01492 -2.49135
-23.2569 -0.662323 -2.61613
-24.1457 0.0876465 -2.81246
-21.5526 -0.0731506 -3.0808
-21.5503 -0.807892 -2.74539
-22.785 -1.07642 -2.4761
-23.0573 -0.900177 -2.80822
-21.6513 -0.656891 -2.20305
-22.0626 0.566833 -2.80213
-22.0841 -1.23013 -2.43452
-22.0149 -0.489532 -1.93814
-23.9016 2.28653 -2.95266
-21.739 -1.02213 -2.68374
-21.4001 -0.192291 -2.89345
-21.789 -1.13293 -2.78615
-21.3775 -0.565277 -2.81028
-22.4228 -1.0451 -2.055
-22.4156 0.891052 -3.01239
-21.4984 -0.660492 -2.4539
-23.1481 -0.801483 -2.76294
-21.7967 -1.01331 -2.90976
-22.2759 -1.28107 -2.48832
-21.435 -0.211517 -2.44658
-22.8172 -1.05008 -3.07412
-21.4801 -0.574249 -2.67807
-21.9735 0.300812 -2.30717
-21.8144 0.051239 -3.20491
-21.5424 0.0463562 -2.69797
-23.7575 -0.225647 -2.76845
-21.7599 0.22522 -2.42783
-21.4264 -0.692383 -2.78579
-21.8855 0.379028 -2.89543
-21.4694 -0.756012 -2.64689
-23.0378 -0.220062 -1.84958
-21.3142 -0.410065 -2.75688
-23.8174 2.18515 -2.84141
-21.3118 -0.434631 -2.71837
-22.334 -1.19037 -2.18143
-21.9946 -1.18921 -2.90975
-21.5517 -0.666443 -2.46862
-22.1001 -1.34317 -2.74593
-21.7542 -0.848419 -2.24855
-22.4499 -1.27362 -2.33395
-22.4543 -1.20941 -2.32127
-21.6842 -0.870087 -2.5057
-22.6239 -0.419098 -1.83863
-23.353 1.75888 -3.03906
-23.9099 -0.1008 -2.46277
-22.8133 -1.01709 -3.11608
-22.0013 -1.26315 -2.65643
-23.276 -0.661926 -2.70328
-21.355 -0.364502 -2.60439
-21.5213 -0.474304 -2.49264
-21.526 -0.631073 -2.93089
-22.0242 -0.484253 -1.90269
-21.84 -1.12607 -2.77937
-21.7918 -0.908234 -2.94258
-22.1995 -1.26678 -2.43481
-22.0069 -1.11472 -2.3035
-21.635 -0.54483 -2.25682
-21.9645 -1.10236 -2.2964
-22.7404 -0.544952 -1.85319
-21.5455 -0.654388 -2.62673
-22.2245 -1.25436 -2.24813
-21.6651 -0.765717 -2.25137
-22.2794 0.732117 -2.92099
-21.7855 -1.11624 -2.76967
-22.3991 0.82193 -2.98828
-22.1049 0.575714 -2.76019
-21.5595 0.0787048 -2.72677
-22.6233 -1.12756 -2.33077
-22.998 -0.975739 -3.13354
-22.2103 -1.36942 -2.75435
-22.4379 -0.706512 -1.92883
-22.3666 -1.24908 -2.39674
-21.956 -0.187439 -1.91915
-23.2627 -0.681793 -2.90414
-22.9487 1.40204 -2.97988
-21.8724 -0.065094 -1.9477
-21.6029 -0.17807 -2.17925
-21.6585 -0.887665 -2.61424
-22.1214 -1.34476 -2.69915
-23.6896 -0.150879 -2.245
-22.4683 -0.991547 -2.10801
-21.5957 -0.769501 -2.55084
-21.5406 -0.608185 -2.39577
-21.7331 -0.885956 -2.28065
-22.8411 -1.07471 -2.51106
-21.8585 -1.02332 -2.5971
-21.9455 -1.22202 -2.87922
-21.7235 -0.922485 -2.63721
-21.4689 -0.41748 -2.26098
-22.227 -1.2937 -2.45313
-24.2002 0.172485 -2.6362
-21.909 -1.20016 -2.8515
-22.4361 0.892792 -2.9511
-22.7612 -1.05466 -3.10051
-21.7114 -0.774109 -2.20303
-22.9026 -1.04733 -3.14273
-22.3107 -1.36072 -2.79542
-21.7884 -0.809296 -2.19967
-21.7414 -0.92807 -2.60856
-23.5726 1.96732 -3.00519
-21.6114 -0.445404 -2.19677
-22.674 1.10999 -2.92463
-22.3388 -1.32083 -2.95634
-21.4668 -0.44632 -2.43887
-21.5322 -0.052063 -2.58422
-22.2395 -1.35461 -2.87994
-21.8693 -1.19513 -2.8006
-22.3298 -1.26791 -2.46497
-21.6996 0.19342 -2.86953
-22.0533 -0.556488 -1.95175
-21.4461 -0.386047 -2.43024
-23.2817 -0.658112 -2.5106
-22.284 -0.713074 -1.9364
-21.341 -0.357971 -2.8469
-22.1539 -0.328522 -1.9216
-21.6781 -0.913483 -2.95409
-22.1052 -1.17349 -2.28246
-22.0546 -1.26047 -2.58916
-23.0427 -0.865143 -2.75445
-22.6494 -1.2131 -2.73808
-21.8992 -0.35553 -1.94609
-21.9579 -1.13159 -2.62608
-22.1405 -1.19949 -2.23262
-21.5004 -0.711517 -2.76525
-21.3979 -0.604065 -2.74186
-21.5098 -0.596375 -2.447
-21.4492 -0.141144 -2.94664
-22.4433 -1.33536 -2.66333
-23.9791 -0.0688171 -2.85128
-21.6917 0.185089 -3.17923
-22.6284 1.11362 -2.95788
-22.9207 -0.992737 -2.59013
-21.7835 0.0559387 -2.21629
-21.8817 -1.02591 -2.36457
-21.7961 -1.03183 -2.53825
-21.7381 -0.853912 -2.35326
-21.6532 -0.823853 -2.49772
-21.5221 -0.407623 -2.27676
-21.4244 -0.407745 -2.33112
-22.4468 -1.35495 -2.67199
-21.3712 -0.321289 -2.49512
-21.5015 -0.772369 -2.61134
-21.9659 -0.484894 -1.9333
-22.1592 -1.211 -2.39672
-21.6136 0.0945435 -2.43551
-21.6546 -0.811035 -2.90241
-22.0759 0.574249 -2.87164
-22.1078 0.590973 -2.80304
-21.9859 -0.418182 -2.00298
-21.3604 -0.294861 -2.6031
-24.1164 0.079071 -2.80386
-22.7097 -1.17358 -2.80563
-21.8407 -1.01224 -2.63219
-23.2434 1.59827 -2.26689
-21.9614 -1.08749 -2.95694
-22.8865 -1.06207 -2.91109
-23.9633 -0.0467224 -2.69998
-21.9188 -1.04681 -2.26271
-21.4128 -0.667206 -2.80203
-21.5003 -0.265167 -2.29328
-21.4622 -0.509216 -2.51732
-21.9878 -1.22223 -2.72134
-22.1215 -1.08951 -2.21704
-22.2237 -1.32495 -2.92122
-23.1763 -0.673889 -2.5589
-21.6226 -0.183868 -2.14697
-21.8927 -1.08157 -2.49541
-24.3047 0.229614 -2.68989
-21.3586 -0.347351 -2.51251
-24.0216 -0.0413818 -2.81956
-22.4971 -1.22623 -2.31425
-22.1675 -0.403442 -1.93499
-21.7934 -0.959778 -2.62598
-21.9639 -0.428864 -1.89183
-22.275 -1.36096 -2.70037
-21.5027 -0.562561 -2.39439
-22.312 -1.39142 -2.82529
-22.1613 0.660553 -2.86604
-22.4948 -0.913635 -2.03981
-21.8678 -1.06216 -2.44955
-21.7762 0.0328064 -3.14341
-23.2121 1.60843 -2.30551
-21.7548 -0.862427 -2.29945
-21.6731 0.179321 -2.52102
-21.717 -0.850006 -2.30072
-21.4098 -0.158386 -2.80923
-21.9285 -1.13623 -2.92421
-21.839 -0.98764 -2.97163
-22.5451 -1.18311 -2.28963
-22.247 -1.35846 -2.85464
-22.0408 -1.29858 -2.65842
-22.3325 0.734802 -3.05196
-21.9541 0.428314 -2.94634
-21.6028 -0.886536 -2.82768
-22.3132 -1.18048 -2.21769
-21.4202 -0.645721 -2.7085
-23.112 1.68668 -2.2658
-22.1994 -1.12915 -2.1993
-22.4183 -1.2876 -2.3637
-21.9924 -1.10583 -2.34075
-24.0083 -0.023407 -2.89333
-23.6011 2.0249 -2.92151
-22.5587 -1.27103 -2.60421
-21.4048 -0.560974 -2.84571
-22.049 -1.29324 -2.57639
-21.595 -0.466339 -2.22792
-22.8433 -0.653137 -1.90637
-22.5942 -1.2265 -2.88899
-21.4509 -0.541931 -2.59567
-21.6597 0.099823 -3.09705
-21.9039 -0.203949 -1.95007
-21.806 -0.119751 -2.03722
-21.8656 -1.04099 -2.34364
-23.4448 1.88181 -2.97675
-21.3974 -0.186096 -2.74583
-24.0951 0.0329895 -2.84035
-21.4032 -0.604431 -2.79243
-21.9952 -1.25772 -2.75239
-22.3381 -1.24603 -2.27182
-22.9224 -0.542633 -1.88493
-22.0755 -1.1777 -2.92537
-21.5759 -0.783386 -2.91767
-22.7754 -1.03015 -3.08336
-22.2095 -1.06842 -2.11787
-21.7524 -0.000854492 -2.14775
-21.7834 -0.947784 -2.32195
-21.5941 -0.834106 -2.91385
-22.2243 -0.444214 -1.86052
-22.7644 -1.13477 -2.78292
-22.5731 -1.16556 -2.3514
-21.7164 -0.00247192 -3.0919
-23.5146 1.88794 -2.3839
-21.415 -0.667847 -2.82361
-21.8513 0.344147 -2.85175
-22.0832 -1.20706 -2.88806
-22.523 -0.734894 -1.8842
-21.646 -0.913849 -2.72017
-21.9288 -1.09802 -2.56822
-21.6322 -0.806824 -2.54713
-21.5786 -0.234558 -2.25456
-22.1625 -1.35599 -2.65014
-21.8364 -0.9151 -2.96742
-21.8622 -1.05499 -2.5431
-21.9857 -0.0116882 -1.8686
-22.5972 -1.22058 -2.54064
-22.313 -1.35385 -2.67242
-21.9948 -1.2616 -2.69543
-23.3474 -0.604126 -2.68236
-21.94 -1.10175 -2.32592
-21.5139 -0.733521 -2.90511
-23.8076 2.22113 -2.78172
-21.9649 -1.11627 -2.26281
-22.2955 -1.24026 -2.33287
-21.3494 -0.267731 -2.79396
-22.0569 -1.30991 -2.83995
-21.8884 -0.34436 -1.8733
-23.5125 -0.468384 -2.81675
-22.099 -0.57486 -1.91646
-22.3089 -0.544891 -1.88723
-23.9528 2.33984 -3.00643
-23.7729 2.13971 -3.17836
-21.9038 -1.21246 -2.75184
-21.8299 0.300507 -3.0042
-22.4366 -0.838257 -1.89948
-21.5913 -0.721802 -2.44044
-21.5715 -0.724365 -2.67484
-21.5434 -0.679382 -2.37455
-22.0232 -0.456146 -1.98801
-23.5697 1.91171 -3.12989
-23.5929 1.95358 -3.18361
-22.6933 -1.19336 -2.7565
-24.6676 0.630402 -2.53871
-21.5685 -0.698425 -2.60444
-22.5104 -0.746796 -1.86889
-22.0543 -0.542358 -1.98907
-21.8061 -0.973145 -2.59199
-24.6253 0.565399 -2.51699
-21.7643 -1.01367 -2.58594
-21.6562 0.098999 -3.04732
-21.5645 -0.698822 -2.54347
-21.4038 -0.202972 -2.68097
-22.0275 -1.29245 -2.69462
-21.6737 -0.960327 -2.61953
-23.1906 -0.759552 -2.73845
-21.5488 -0.461975 -2.23346
-21.5594 -0.602966 -2.29509
-22.3026 -0.715546 -1.90122
-22.3165 -1.33002 -2.56226
-21.3578 -0.354034 -2.53785
-21.8931 -1.17215 -2.84385
-22.5217 -1.27136 -2.85176
-21.6636 -0.836273 -2.38654
-21.8631 -1.16031 -2.85257
-21.3975 -0.404816 -2.50251
-21.9323 -1.10559 -2.58171
-21.8298 -0.983765 -2.2847
-23.4625 -0.502289 -2.84415
-21.8708 -1.17911 -2.60007
-21.9144 -1.08618 -2.60198
-23.1566 -0.797791 -3.11629
-23.9124 2.30676 -3.07738
-21.498 -0.513855 -2.28971
-21.4361 -0.635834 -2.78582
-21.9607 -1.23941 -2.79569
-22.2784 -1.1131 -2.16782
-24.2874 0.243713 -2.72631
-22.3829 -0.793335 -1.92239
-24.5745 0.509125 -2.5858
-21.3966 -0.529083 -2.58746
-22.7701 -1.01926 -3.14204
-22.3508 -1.36884 -2.74512
-21.3347 -0.373108 -2.79795
-21.424 -0.147705 -2.7649
-21.5192 -0.639984 -2.63023
-21.6246 -0.791046 -2.57886
-21.7599 -0.096405 -2.0472
-22.5396 -1.3024 -2.58591
-22.8929 -1.0575 -2.93997
-22.5057 -1.30453 -2.60066
-22.1022 0.62674 -2.83207
-22.8771 -1.02502 -2.61696
-21.9555 -1.05023 -2.33656
-22.3941 -1.36859 -2.73254
-21.3435 -0.442413 -2.74011
-23.2659 -0.642731 -2.73306
-21.565 -0.866669 -2.83061
-22.1046 -1.18997 -2.33771
-22.2166 -1.27777 -2.54487
-23.1933 -0.77832 -2.99361
-21.816 -0.0181885 -3.15268
-22.4952 -0.694153 -1.89773
-21.8563 -0.217987 -1.98511
-21.6712 0.154633 -2.48165
-21.6062 -0.930115 -2.63787
-21.5979 -0.855896 -2.85534
-22.3611 -1.37033 -2.59801
-21.7111 0.0967712 -3.0982
-21.674 -0.81012 -2.25894
-21.8173 -1.0018 -2.55122
-21.3987 -0.604309 -2.92273
-22.3962 -1.29703 -2.40684
-21.991 -1.16183 -2.94564
-21.4468 -0.471588 -2.96161
-21.6647 -0.941559 -2.91743
-21.7771 -0.831848 -2.16856
-21.9944 -0.437469 -1.94838
-22.3293 -1.11115 -2.19925
-22.8841 -1.06021 -2.76962
-21.3414 -0.41098 -2.80194
-22.25 -1.26627 -2.34771
-23.6982 1.88489 -3.17513
-21.8966 -1.06851 -2.42464
-21.8926 -0.103577 -1.97651
-21.9427 -1.21271 -2.85054
-22.1867 -1.21259 -2.35931
-22.1913 -1.20731 -2.29496
-22.7293 -1.13156 -2.4616
-22.0592 -1.17154 -2.44678
-23.2038 1.63412 -2.99913
-22.3038 -1.35675 -2.86133
-21.5046 -0.794128 -2.91737
-22.289 -1.33109 -2.89938
-21.4397 -0.507751 -3.01036
-22.2438 -1.15268 -2.20934
-21.926 -1.10291 -2.35159
-21.7834 -0.981323 -2.3488
-22.0872 0.562683 -2.77163
-21.4824 -0.723022 -2.68256
-21.6139 -0.784119 -2.53366
-22.4715 -0.70697 -1.85341
-21.8932 -0.911163 -2.20302
-21.6384 -0.504456 -2.2805
-22.0629 -1.20166 -2.50182
-23.546 -0.0652466 -2.05146
-21.6113 -0.807281 -2.45165
-22.397 -1.24722 -2.39699
-21.9116 -0.313354 -1.91491
-21.464 -0.181122 -2.31519
-21.4347 -0.170868 -2.3449
-21.517 -0.121765 -2.39496
-21.5256 0.00552368 -2.61243
-21.5117 0.0220032 -2.64733
-23.4215 1.87564 -2.4146
-21.6659 0.148773 -2.80465
-23.6088 2.05753 -2.61609
-23.7239 2.13477 -2.68218
-23.7522 2.17371 -2.73228
-23.851 2.26514 -2.83221
-21.8712 0.335632 -3.04923
-22.5222 0.947632 -3.00633
-23.1412 1.582 -2.94135
-23.8924 2.30838 -2.88268
-21.9052 0.370758 -3.09768
-21.8947 0.389862 -3.13717
-23.6618 1.84879 -3.13097
-23.7461 1.93051 -3.2298
-21.4295 -0.378723 -2.41608
-22.047 -0.261963 -1.90955
-22.8157 -1.08621 -2.63935
-23.8195 -0.17038 -2.97153
-21.8204 -1.00333 -2.39478
-22.3971 -1.26712 -2.31808
-21.3839 -0.35202 -2.57718
-22.8801 -0.417053 -1.83567
-21.7677 -0.893982 -2.25272
-21.7952 -0.217407 -1.91624
-21.8235 -0.185791 -1.95469
-22.3908 0.383759 -1.85249
-21.6737 -0.864441 -2.34204
-22.2273 0.38855 -1.9477
-22.1958 0.409454 -1.99925
-21.5466 -0.517151 -2.2616
-21.6152 -0.790741 -2.4999
-21.4675 -0.494904 -2.33654
-21.574 -0.757843 -2.54494
-21.5513 -0.746216 -2.60007
-21.5526 -0.725006 -2.64416
-21.445 -0.715881 -2.70749
-21.3854 -0.391327 -2.54852
-21.444 -0.68866 -2.75305
-21.6027 0.072113 -2.50499
-21.3447 -0.349091 -2.65057
-21.3757 -0.649994 -2.84975
-21.3392 -0.31369 -2.68308
-21.6084 0.127838 -2.59939
-21.3973 -0.603912 -2.89186
-21.318 -0.318298 -2.71855
-21.3405 -0.29184 -2.75607
-21.6348 0.169098 -2.65793
-21.4497 -0.567139 -2.96778
-21.7062 0.218781 -2.70742
-21.3667 -0.24176 -2.83223
-21.7483 0.256531 -2.75169
-23.1991 1.64059 -2.67628
-21.8377 0.31662 -2.81008
-22.542 1.02921 -2.86004
-23.3994 1.81097 -2.84378
-23.4327 1.85095 -2.89185
-21.9944 0.467285 -2.99421
-23.4952 1.90628 -2.94823
-21.9865 0.48468 -3.03001
-22.7238 1.17862 -3.01638
-23.6532 2.0332 -3.06864
-23.7362 2.09894 -3.13045
-23.8153 2.18805 -3.23588
-22.1521 -1.16519 -2.23943
-22.002 -1.15131 -2.54474
-21.5136 -0.456055 -2.25785
-21.514 -0.42392 -2.23659
-21.8522 -0.835968 -2.22373
-23.1522 -0.184448 -1.79031
-22.4216 -0.790863 -1.91437
-22.1602 -1.13672 -2.18442
-22.1162 -1.133 -2.21107
-21.8885 -1.09631 -2.38073
-22.0964 -1.32834 -2.6133
-21.897 -1.06876 -2.40015
-21.7441 -0.798553 -2.2385
-22.5235 0.569916 -1.85669
-22.0984 -1.30878 -2.64726
-21.8222 -0.0799561 -1.96439
-22.0035 -1.30588 -2.65262
-21.8443 -1.05206 -2.48851
-21.6614 -0.793152 -2.29469
-22.4342 0.576294 -1.92393
-21.8103 -1.04428 -2.50934
-21.648 -0.76239 -2.33367
-21.9903 -1.28952 -2.72932
-21.9169 -1.2598 -2.79626
-21.9297 -1.25339 -2.8392
-21.6975 -1.00906 -2.62682
-21.4765 -0.459442 -2.29733
-21.585 -0.717102 -2.49046
-21.456 -0.419037 -2.35886
-21.5426 -0.667969 -2.54044
-21.4372 -0.399628 -2.3846
-21.6408 -0.953644 -2.75475
-21.546 -0.661316 -2.58731
-21.6375 -0.935089 -2.79006
-21.4045 -0.353729 -2.45048
-21.4367 -0.655548 -2.64108
-21.3916 -0.344086 -2.494
-21.4118 -0.656158 -2.66956
-21.7449 0.168457 -2.43296
-23.1878 1.62207 -2.34515
-21.6667 -0.863892 -2.9084
-21.7294 0.180664 -2.46388
-23.1969 1.64987 -2.38494
-21.6614 -0.848907 -2.93575
-21.7014 0.189636 -2.49702
-21.3603 -0.247131 -2.68699
-21.9716 0.383759 -2.66407
-21.3677 -0.212219 -2.74269
-21.8532 0.348572 -2.67807
-21.8966 0.390228 -2.72345
-23.6824 2.08951 -2.77658
-21.4579 -0.104584 -2.84517
-22.1027 0.532471 -2.84166
-21.4601 -0.0917969 -2.89293
-22.1322 0.569305 -2.88784
-23.8384 2.22366 -2.89159
-21.504 -0.0578918 -2.94348
-22.1428 0.598511 -2.93275
-22.899 1.35336 -2.92923
-22.2612 0.677277 -2.99582
-21.658 0.0536499 -3.05204
-23.0619 1.48495 -3.04641
-23.7628 1.89368 -3.27561
-21.7086 0.145721 -3.18515
-22.504 -0.666748 -1.90385
-22.3657 -1.25977 -2.35094
-21.9477 -1.12579 -2.90175
-21.6056 -0.652985 -2.2907
-22.324 -0.751251 -1.86789
-22.4447 -1.28784 -2.55343
-21.7368 -0.850342 -3.00974
-22.638 -0.656158 -1.8386
-22.3029 -0.738586 -1.90157
-22.0988 -1.05899 -2.16188
-22.0508 -1.06519 -2.19831
-21.9949 -0.436646 -1.87945
-22.2549 -1.29822 -2.41867
-22.241 -1.28345 -2.45211
-21.9469 -1.07852 -2.25011
-22.1935 -1.27682 -2.47814
-21.8997 -1.06433 -2.29638
-22.156 -1.25333 -2.54546
-21.9804 0.00714111 -1.90332
-21.8586 -1.03583 -2.37571
-21.8101 -1.00668 -2.44505
-21.9592 -1.25034 -2.64302
-21.7963 -0.988312 -2.4845
-21.6478 -0.755615 -2.29467
-21.966 -1.24979 -2.69422
-21.6086 -0.741058 -2.32492
-21.9523 -1.22177 -2.69667
-21.7632 -0.964661 -2.54856
-21.6036 -0.711121 -2.35355
-21.5173 -0.434723 -2.19865
-21.5885 -0.70697 -2.39311
-21.6651 -0.984283 -2.58181
-21.4594 -0.410767 -2.2989
-21.4273 -0.374756 -2.36313
-21.5212 -0.647064 -2.54921
-21.621 -0.906372 -2.74904
-21.5095 -0.61676 -2.59752
-21.7293 0.16394 -2.34541
-21.4378 -0.640686 -2.6118
-21.4047 -0.607117 -2.69378
-21.3689 -0.30014 -2.53376
-21.3699 -0.279846 -2.56879
-21.6777 -0.803223 -2.95296
-21.4155 -0.235382 -2.61526
-21.3863 -0.567566 -2.77732
-21.3926 -0.228577 -2.64345
-22.1053 0.499878 -2.64643
-23.8617 2.29156 -2.6554
-22.1141 0.544281 -2.69916
-22.1077 0.549164 -2.73223
-21.4469 -0.118378 -2.80103
-22.2324 0.684174 -2.87233
-21.4993 -0.0484924 -2.88879
-21.5487 -0.0012207 -2.93834
-21.6342 0.0653687 -2.99665
-21.6644 0.133881 -3.09906
-23.6599 2.01648 -3.2389
-21.6687 0.158173 -3.1452
-23.7733 -0.243652 -2.86482
-22.4448 -0.659119 -1.88723
-22.2555 -0.712433 -1.93835
-22.2431 -1.26364 -2.39484
-21.9819 -0.38678 -1.95654
-22.1629 -1.27267 -2.45555
-21.9592 -1.05734 -2.28791
-21.9111 -1.05405 -2.35538
-21.783 -0.764923 -2.17658
-22.0049 0.0404968 -1.9263
-21.8487 -1.01047 -2.39117
-21.7075 -0.751404 -2.25053
-21.9937 -1.2684 -2.60516
-21.9469 -1.21378 -2.73725
-21.7546 -0.945526 -2.58059
-21.7177 -0.954834 -2.60696
-21.6676 -0.96048 -2.65152
-21.7973 0.144226 -2.26757
-21.6416 -0.946869 -2.67446
-21.8999 -1.14987 -2.88803
-21.6032 -0.906158 -2.79128
-21.4482 -0.324738 -2.47799
-21.3997 -0.308746 -2.54467
-21.3809 -0.299591 -2.57582
-21.6237 -0.799377 -2.95572
-21.3653 -0.564209 -2.8448
-23.1873 1.66016 -2.83315
-22.0694 0.581268 -2.78178
-23.2893 1.75168 -2.89629
-22.2523 0.744354 -2.90648
-23.5646 1.98755 -3.04809
-22.3464 0.825928 -2.96682
-23.7278 2.12067 -3.12696
-21.5178 -0.0283203 -2.94212
-23.7968 2.19235 -3.18635
-21.5324 0.00216675 -2.98442
-22.2087 -1.36707 -2.5877
-21.5238 -0.583984 -2.97249
-22.5222 -0.200958 -1.86179
-22.4111 -1.24319 -2.34329
-22.2023 -0.352539 -1.88798
-22.1014 -1.04926 -2.22242
-22.2653 -1.27069 -2.42247
-22.0603 -1.05133 -2.25135
-21.9638 -0.413971 -1.94801
-22.0139 -1.05905 -2.27487
-21.9715 -0.00854492 -1.93689
-21.778 -0.799042 -2.20964
-22.1515 -1.24423 -2.59325
-22.0984 -1.24149 -2.60121
-21.8821 -1.03076 -2.42923
-21.8587 -1.02466 -2.4588
-21.6835 -0.794464 -2.29696
-21.4986 -0.458801 -2.29255
-22.831 -1.06433 -3.11621
-21.9405 -1.21924 -2.78989
-21.9082 -1.20966 -2.80664
-21.7383 -0.973938 -2.64626
-21.6911 0.031311 -2.25865
-21.6908 -0.980072 -2.6745
-21.5811 -0.710602 -2.52859
-21.4356 -0.398865 -2.48432
-21.6398 -0.929169 -2.80777
-21.4439 -0.668304 -2.69842
-21.4337 -0.657135 -2.75023
-21.4092 -0.612244 -2.84657
-23.7901 2.19159 -3.00883
-21.3749 -0.593048 -2.91602
-21.4169 -0.544922 -2.96436
-22.5407 1.00189 -3.08026
-21.5724 -0.00473022 -3.03985
-21.6641 0.108276 -3.13731
-21.7245 0.1875 -3.2351
-21.8169 -0.844086 -2.25761
-21.5375 -0.703308 -2.97086
-22.303 -0.753052 -1.94617
-22.2852 -0.741852 -1.9804
-22.2165 -1.07578 -2.18832
-22.1546 -1.08313 -2.23056
-22.3602 -1.26935 -2.43658
-22.1016 -1.08908 -2.25548
-21.9816 -1.08981 -2.37287
-21.9555 -1.09149 -2.40217
-21.8025 -0.146515 -1.99869
-22.1404 -1.28287 -2.60167
-22.108 -1.26852 -2.64005
-21.9088 -1.0611 -2.48691
-21.7009 -0.840485 -2.34332
-21.8918 -1.04184 -2.53513
-21.6473 -0.810272 -2.44992
-21.5596 -0.566925 -2.28602
-21.9942 -1.2475 -2.79148
-21.7444 -1.05423 -2.64485
-21.9526 -1.24564 -2.83464
-21.5979 -0.759277 -2.60024
-21.7041 -0.998016 -2.80359
-21.5795 -0.743439 -2.635
-21.443 -0.468872 -2.53065
-21.6759 -0.975464 -2.84776
-21.4106 -0.457794 -2.55547
-21.4796 -0.748383 -2.72263
-21.4106 -0.447174 -2.59989
-21.6026 0.0563354 -2.52275
-21.4008 -0.451904 -2.63786
-21.4768 -0.709045 -2.79237
-21.378 -0.431641 -2.65699
-21.4458 -0.693726 -2.84381
-21.3451 -0.452515 -2.69865
-21.7139 0.239746 -2.70413
-21.4356 -0.671417 -2.89682
-22.0666 0.542908 -2.83043
-21.4142 -0.655853 -2.94451
-21.4548 -0.593842 -3.01151
-21.3543 -0.31015 -2.89796
-21.3959 -0.237396 -2.96365
-21.4517 -0.171356 -3.01799
-21.7097 0.0873413 -3.15164
-21.7057 0.0926819 -3.20432
-23.8507 -0.163269 -2.93623
-24.4975 0.46991 -2.58115
-22.6842 -0.641174 -1.86164
-22.2622 -0.453339 -1.88231
-22.2447 -1.15442 -2.16715
-22.0812 -0.558746 -1.92221
-22.2552 0.0122681 -1.89887
-22.5212 -1.2153 -2.49706
-22.3523 -1.31284 -2.48355
-22.0803 -1.16418 -2.31097
-22.3161 -1.31598 -2.51936
-22.065 -1.12729 -2.38575
-21.8702 -0.920135 -2.23097
-22.0196 -1.14725 -2.41344
-21.8289 -0.940033 -2.25733
-22.0047 -1.15741 -2.44904
-21.8047 -0.95343 -2.29761
-21.7546 -0.937408 -2.34829
-21.9532 -1.11526 -2.55211
-21.7128 -0.898773 -2.45087
-23.2063 1.5412 -2.38626
-21.8398 -1.12109 -2.61876
-21.6978 -0.897675 -2.49491
-21.5423 -0.629303 -2.36094
-21.6746 -0.854279 -2.54486
-21.6656 -0.838379 -2.57592
-21.7827 -1.07578 -2.75113
-21.4404 -0.278687 -2.33791
-21.7602 -1.07043 -2.78267
-21.5713 -0.856964 -2.6437
-21.4839 -0.601776 -2.50417
-21.4148 -0.276062 -2.36999
-21.4674 -0.562653 -2.54529
-21.452 -0.221771 -2.4123
-21.7634 -0.983185 -2.92541
-21.8384 -0.901154 -2.9867
-21.3887 -0.546265 -2.65556
-21.369 -0.557648 -2.69702
-21.5469 -0.0015564 -2.64566
-21.3497 -0.520905 -2.73803
-21.5236 -0.703674 -2.94386
-21.5573 -0.654083 -2.98973
-21.3587 -0.455933 -2.83177
-21.377 -0.416077 -2.8755
-21.3915 -0.357971 -2.95278
-21.4678 -0.612823 -2.54341
-22.7542 -0.47937 -1.82272
-23.4711 -0.104767 -1.97956
-22.1534 -0.622986 -1.9419
-22.3121 -0.0770874 -1.87318
-22.0121 -0.275391 -1.93177
-22.703 -1.15945 -2.58248
-22.0376 -0.981018 -2.20234
-22.6449 -1.19601 -2.58893
-21.9552 -1.01447 -2.23809
-21.9036 -0.326385 -1.98275
-22.3939 -1.33588 -2.59757
-21.8936 -1.00467 -2.29303
-22.3398 -1.35953 -2.6387
-22.0677 -1.21997 -2.46786
-21.7402 -0.730896 -2.24373
-22.233 -1.37433 -2.72265
-21.7824 -0.963806 -2.50817
-21.5571 -0.419769 -2.24684
-21.4545 -0.444611 -2.32988
-21.4104 -0.395477 -2.4525
-21.6533 -0.910217 -2.73427
-21.4156 -0.637665 -2.75256
-21.3844 -0.27832 -2.65383
-21.3679 -0.245972 -2.7206
-21.5362 0.00442505 -2.88938
-21.5136 -0.7724 -2.73951
-22.4178 -0.598907 -1.90515
-22.2235 -0.709717 -1.97932
-22.4036 0.414429 -1.92443
-22.125 0.14386 -1.91264
-22.3484 -1.20499 -2.44776
-22.1949 -1.28577 -2.50158
-22.6047 -1.25049 -2.76692
-22.5612 -1.26581 -2.79408
-21.9175 -1.09531 -2.44628
-21.7813 -0.863342 -2.28836
-22.3758 -1.35718 -2.85778
-21.7062 -0.863098 -2.37854
-21.8577 0.111786 -2.20131
-22.3493 -1.34711 -2.9035
-22.033 -1.28027 -2.69545
-21.9665 0.264038 -2.26723
-21.6802 -0.83783 -2.4455
-21.8693 0.216095 -2.32467
-22.4866 -1.15869 -3.04263
-21.744 -1.05521 -2.70935
-21.9176 -1.24387 -2.88425
-21.7308 -1.01306 -2.78683
-21.5997 -0.759552 -2.65347
-21.5689 -0.768158 -2.67856
-21.4402 -0.496552 -2.55456
-21.6804 -1.01492 -2.84408
-21.5197 -0.79303 -2.70264
-21.4342 -0.486847 -2.58257
-21.3834 -0.461456 -2.68031
-21.3798 -0.267151 -2.9534
-21.4801 -0.123566 -3.02779
-21.9088 -0.977173 -2.25275
-22.7923 -1.10074 -2.53743
-23.6117 -0.0472717 -2.08803
-22.7709 -0.452637 -1.87407
-23.938 -0.0337524 -2.44994
-22.3649 -0.778687 -1.94784
-23.2507 -0.640228 -2.41647
-22.2332 -0.423889 -1.91372
-22.0948 -0.52179 -1.96395
-22.2193 -1.17664 -2.24415
-22.1382 -1.2084 -2.29968
-22.412 -1.28641 -2.50921
-21.977 -0.109283 -1.97367
-22.3711 -1.30008 -2.5389
-21.9646 -0.942596 -2.22883
-22.1285 -1.13522 -2.41149
-22.2938 -1.32983 -2.58984
-22.2571 -1.33966 -2.62016
-21.8659 -0.970093 -2.31558
-22.2015 -1.35971 -2.63138
-21.9999 -1.15302 -2.49242
-21.7438 -0.672852 -2.21619
-22.8074 -1.12006 -2.95753
-22.1632 -1.3602 -2.68731
-21.7994 -0.961456 -2.41011
-21.658 -0.698578 -2.29218
-22.7604 -1.09457 -3.04264
-22.1491 -1.34689 -2.74035
-21.757 -0.951996 -2.4451
-22.1372 -1.33395 -2.77316
-21.7576 -0.93985 -2.49109
-21.8749 -1.17145 -2.67379
-21.7378 -0.921722 -2.53991
-21.7023 -0.89975 -2.58938
-21.8148 -1.12625 -2.8103
-21.4322 -0.320221 -2.41688
-21.518 -0.621613 -2.56905
-21.4598 -0.258301 -2.45763
-21.4368 -0.253784 -2.49299
-21.8015 -1.06107 -2.91683
-21.428 -0.23465 -2.52796
-23.8462 -0.139709 -2.49049
-22.1636 -0.690094 -1.90232
-22.1917 -0.620331 -1.9475
-22.7202 -1.15778 -2.55217
-21.9348 -0.357269 -1.94643
-22.4864 -1.31305 -2.64547
-21.7877 -0.867279 -2.18284
-22.4117 -1.35831 -2.69454
-21.7595 -0.846497 -2.21774
-22.3661 -1.3671 -2.70478
-22.1174 -1.2186 -2.58509
-21.8337 -1.01999 -2.54827
-21.645 -0.821808 -2.39677
-21.5048 -0.537659 -2.30959
-22.2483 -1.30228 -2.9503
-21.7959 -1.01144 -2.62359
-21.4772 -0.542328 -2.3407
-21.4585 -0.53418 -2.3745
-21.7033 -1.00549 -2.7362
-21.4214 -0.46817 -2.4976
-21.9898 -1.04153 -2.97178
-21.6586 -1.00195 -2.79831
-21.7146 -0.834076 -2.94511
-21.7217 -0.788635 -2.99132
-21.4243 -0.674835 -2.88164
-21.431 -0.597046 -2.96416
-23.6241 -0.139679 -2.18953
-22.4117 -0.652466 -1.86937
-22.2804 -0.775024 -1.91179
-22.7769 -0.990936 -2.29156
-22.6571 -1.116 -2.30057
-22.186 -0.307251 -1.89652
-22.0497 -0.483734 -1.89788
-22.5101 -1.21713 -2.37265
-22.2059 -1.16385 -2.20589
-22.4578 -1.25455 -2.39665
-22.3528 -1.31366 -2.44089
-22.9733 -0.92218 -2.77393
-22.1091 -1.18243 -2.31184
-22.2948 -1.34253 -2.4911
-22.2816 -1.33353 -2.53249
-21.875 -0.988281 -2.22007
-21.8081 -0.0784607 -1.99972
-22.2461 -1.3483 -2.55089
-22.0422 -1.17075 -2.3936
-21.8443 -0.998352 -2.24992
-22.661 -1.20471 -2.83007
-22.63 -1.2124 -2.86042
-21.6977 -0.659058 -2.18921
-21.727 -0.0891113 -2.09882
-21.6908 -0.108185 -2.12899
-22.5795 -1.21439 -2.92258
-21.7539 -0.955841 -2.3942
-21.6384 -0.678955 -2.24802
-22.6377 -1.10327 -2.98301
-22.7197 -0.957092 -3.05556
-21.5895 -0.682526 -2.30974
-22.0874 -1.33868 -2.77784
-21.7211 -0.935669 -2.48006
-21.5589 -0.695526 -2.33731
-21.6887 -0.911163 -2.54906
-21.5168 -0.685883 -2.40334
-22.0629 -1.23859 -2.92635
-21.8151 -1.13202 -2.75309
-21.4224 -0.197998 -2.40273
-21.5951 -0.911957 -2.67192
-21.4541 -0.59787 -2.57692
-21.5416 -0.865692 -2.79204
-21.3674 -0.543304 -2.748
-22.7625 -1.11078 -2.42593
-23.356 -0.580292 -2.8958
-24.3804 0.348419 -2.59797
-24.3116 0.292328 -2.62487
-24.0527 0.0409546 -2.68152
-23.1567 -0.707764 -2.35157
-23.879 -0.130249 -2.71663
-23.0429 -0.84259 -2.35733
-22.141 -0.638062 -1.87103
-23.7194 -0.243225 -2.79851
-23.5638 -0.433014 -2.78944
-22.106 -0.61908 -1.93654
-22.33 -1.2558 -2.24055
-22.687 -1.15836 -2.48877
-23.4057 -0.544067 -2.87151
-22.6592 -1.19077 -2.50154
-21.897 -0.252075 -1.93459
-22.5445 -1.26633 -2.56108
-23.172 -0.780243 -2.91264
-22.2043 -1.26907 -2.39443
-21.9922 -1.10788 -2.23433
-23.1348 -0.799011 -2.94019
-22.4471 -1.34662 -2.60369
-22.3979 -1.36551 -2.64835
-21.8004 -0.824249 -2.16015
-22.9714 -0.966736 -2.96604
-22.9324 -0.989197 -2.99188
-22.8386 -1.09506 -2.99609
-21.7167 -0.854248 -2.24567
-22.8049 -1.07266 -3.03851
-22.3009 -1.38824 -2.75183
-22.2812 -1.38351 -2.78294
-21.6775 -0.838898 -2.31286
-21.4592 -0.505432 -2.30766
-21.7415 -1.05704 -2.61996
-21.5911 -0.780731 -2.48318
-21.6752 -1.00751 -2.75654
-21.6826 -0.778931 -2.96814
-21.7756 0.281891 -3.21466
-23.0252 -0.671539 -2.11624
-22.9252 -0.758942 -2.17031
-23.9988 -0.0126648 -2.80184
-23.9241 -0.0863953 -2.82545
-22.247 -0.715515 -1.88221
-22.533 0.511414 -1.85292
-23.8649 -0.140961 -2.84841
-22.588 -1.14667 -2.26545
-23.1757 -0.63269 -2.59991
-23.7038 -0.270752 -2.92923
-23.0127 -0.871124 -2.58546
-23.6546 -0.312805 -2.95165
-22.2243 -1.1272 -2.16718
-22.7587 -1.14276 -2.6604
-22.1221 -1.18399 -2.25592
-22.7097 -1.19348 -2.67657
-22.0853 -1.14673 -2.33875
-22.2774 -1.332 -2.51233
-22.2063 -1.37326 -2.5696
-23.0679 -0.908386 -3.12091
-21.6492 -0.600494 -2.18839
-22.4812 -1.29779 -2.87994
-21.9638 -1.13235 -2.51571
-21.6109 -0.604156 -2.23778
-22.4585 -1.29742 -2.91061
-21.7225 -0.928955 -2.42023
-21.5309 -0.651276 -2.30988
-22.0778 -1.30798 -2.80213
-21.5222 -0.616913 -2.34862
-21.5084 -0.59726 -2.38285
-21.6002 -0.863495 -2.63974
-21.4489 -0.545898 -2.50368
-21.7897 -0.96048 -2.89988
-21.3451 -0.48645 -2.69004
-21.7839 0.0572815 -3.15184
-21.792 0.134949 -3.2046
-24.8059 0.744537 -2.49217
-24.6877 0.613281 -2.52972
-24.6367 0.582611 -2.55815
-23.16 -0.203857 -1.82592
-24.5099 0.44516 -2.61352
-24.3931 0.335236 -2.66884
-24.233 0.196136 -2.75539
-24.1765 0.141144 -2.78048
-22.3249 -0.802002 -1.88655
-23.9275 -0.119568 -2.87365
-23.8873 -0.140015 -2.90857
-22.4289 -1.08752 -2.1327
-23.2511 -0.622406 -2.659
-23.1178 -0.835876 -2.65141
-23.0887 -0.839905 -2.68708
-23.0629 -0.846649 -2.71608
-22.2629 -1.24536 -2.23531
-23.0036 -0.914581 -2.73634
-22.9411 -0.989716 -2.75468
-22.4734 -1.28113 -2.52016
-22.8422 -1.09134 -2.79859
-21.9829 -1.00061 -2.20943
-22.8234 -1.07874 -2.83494
-22.7814 -1.11963 -2.85557
-22.1151 -1.23798 -2.44237
-22.2982 -1.40283 -2.6559
-22.0877 -1.22043 -2.49322
-22.2806 -1.38889 -2.69108
-22.2112 -1.38336 -2.78892
-21.7792 -0.990784 -2.49363
-22.1652 -1.38531 -2.84903
-21.9279 -1.2131 -2.71449
-21.6933 -0.969543 -2.62505
-21.8569 -1.10199 -2.89588
-21.8699 -1.01117 -2.94871
-23.8287 -0.144989 -2.35569
-23.4018 -0.568665 -2.60278
-23.9308 -0.0700378 -2.95875
-23.3216 -0.634949 -2.65921
-23.2733 -0.689148 -2.68208
-23.112 -0.829102 -2.79007
-22.6077 -1.25525 -2.52892
-23.0167 -0.935028 -2.83545
-22.5498 -1.33817 -2.54625
-22.8417 -1.11206 -2.93219
-22.799 -1.09637 -3.00106
-22.3448 -1.36966 -2.7974
