18.3156 3.63559 -1.74567
17.6792 3.22272 -1.21232
17.2588 2.74854 -1.83678
18.9722 3.1131 -1.9683
18.1294 1.6651 -0.5047
17.2998 2.8996 -1.79072
17.3009 2.79578 -1.65066
17.4823 3.01544 -1.22839
18.854 2.78653 -0.442841
17.2686 2.5986 -0.99115
18.3806 3.53198 -0.881123
17.677 3.1568 -1.43616
17.5083 2.71039 -0.507988
17.5806 2.66754 -0.481022
17.8259 3.28525 -1.15328
17.9958 3.48096 -1.50269
17.6385 3.17203 -1.57007
19.1439 2.96802 -1.51826
18.2415 3.62778 -1.74279
17.4985 2.04544 -1.32293
18.2941 3.59979 -1.38688
17.8953 3.38693 -1.25025
18.2094 3.37103 -0.519772
17.5119 2.28909 -2.1442
18.2369 3.59274 -1.54443
17.9709 3.18082 -0.532024
17.9769 3.40915 -1.17342
17.5412 2.91498 -0.801785
18.4848 3.53183 -1.05682
18.0757 3.48398 -1.07516
17.4195 2.35086 -2.01356
17.2718 2.78687 -1.85715
17.8125 3.33981 -1.29432
17.2767 2.28589 -1.45999
18.3546 3.63983 -1.34918
18.1817 3.55878 -1.4996
17.2356 2.78766 -1.69433
17.2061 2.59415 -1.2436
18.5082 3.15994 -1.99237
17.2193 2.72687 -1.40222
18.0753 3.45114 -1.04715
17.6136 3.17563 -1.24976
18.0348 2.89017 -0.524265
18.2221 3.62613 -1.86026
17.949 3.39972 -1.44389
17.5003 3.05508 -1.29261
18.1459 3.54758 -1.39286
17.6992 3.28195 -1.32095
17.3255 2.86423 -1.79152
17.4567 2.93997 -1.0485
17.5008 3.04251 -1.60413
18.1727 3.52249 -0.936111
19.0939 3.00122 -1.48244
17.5159 3.01065 -1.09251
17.5746 2.96445 -0.801109
17.73 3.19696 -1.09763
17.863 3.33899 -1.04475
18.0895 3.59189 -1.74268
18.078 3.30524 -0.690136
17.4528 2.92575 -1.09956
18.9993 3.09406 -1.7254
18.2468 3.4964 -0.943333
17.4509 3.00922 -1.27144
18.1284 3.48734 -1.15994
19.0523 2.97696 -1.50837
17.6986 2.95328 -0.534286
17.7067 3.23364 -0.999416
17.3912 2.93893 -1.70996
17.2798 2.75015 -1.48531
17.8234 3.07629 -0.527779
18.1135 3.45102 -0.98558
18.3918 3.64844 -1.30383
18.0773 3.52432 -1.40797
17.3613 2.75348 -0.993313
18.3191 3.62848 -1.26798
17.3429 2.88583 -1.58971
17.4945 2.71188 -0.689804
18.1004 3.57388 -1.78234
17.5022 2.70828 -0.530724
18.3722 3.62219 -1.66096
18.4772 3.45544 -0.713123
17.3996 2.46213 -1.96506
18.1909 3.62561 -1.8082
17.8266 3.02884 -0.482143
17.4362 2.93155 -1.68465
18.635 3.47211 -1.75458
17.9733 3.49918 -1.6677
18.4994 3.5687 -1.231
17.2258 2.71808 -1.8381
17.448 3.00189 -1.38471
17.6575 2.26926 -2.12899
17.213 2.67584 -1.54455
17.2678 2.6843 -0.92321
17.4919 2.79562 -0.498947
17.9528 3.4335 -0.994926
17.3591 2.8815 -1.21003
18.1962 2.98676 -0.495728
17.2631 2.48822 -0.978741
17.9846 3.3428 -0.941284
18.2195 3.34741 -0.538292
17.7612 3.23816 -1.01867
17.7759 3.03616 -0.547832
17.2015 2.58569 -1.84705
18.5045 3.51474 -1.03723
17.8838 3.3299 -1.42338
18.1371 2.60623 -0.43977
17.8922 3.36618 -1.22568
17.8622 3.4343 -1.30683
18.224 3.57788 -1.65361
17.8456 3.24628 -0.826229
17.451 2.95508 -1.49377
18.3298 1.40363 -0.552418
18.0935 2.65076 -0.424408
17.996 3.51962 -1.56153
17.5944 2.88354 -0.545055
17.3935 2.88849 -1.19465
18.567 3.48294 -1.79472
18.7972 3.31195 -2.04242
17.9868 2.38199 -0.488625
18.0341 2.74164 -0.448959
17.7435 3.19827 -0.904655
17.7478 3.21011 -1.14133
17.3018 2.25107 -1.44265
17.8663 2.30499 -0.429821
17.4827 3.01486 -1.42722
18.2221 3.51862 -1.05478
17.9459 3.37781 -1.5118
17.9923 3.19629 -0.573334
17.4519 3.03409 -1.43328
18.3382 3.50668 -0.877628
18.2398 3.60471 -1.74004
18.3161 3.61316 -1.73225
18.1926 3.53897 -1.14858
17.2737 2.56979 -1.05997
17.1601 2.48502 -1.55328
18.3821 3.47543 -1.92169
18.5102 3.48358 -0.887703
17.2995 2.49219 -1.03873
18.8072 3.12192 -1.0433
18.3085 3.62317 -1.41572
17.1604 2.6265 -1.74833
18.1203 3.48813 -1.01729
17.8566 3.19241 -0.588177
18.2414 3.39578 -0.54528
17.2059 2.65326 -1.34158
18.2272 3.59189 -1.40326
17.5949 3.17392 -1.21975
17.2974 2.87946 -1.6926
18.353 3.62134 -1.42868
17.2477 2.7738 -1.46079
17.5886 3.2106 -1.78501
17.4195 2.95648 -1.83482
17.2935 2.78616 -1.24658
18.6155 2.62897 -0.454067
17.6884 3.11084 -0.963089
18.184 3.55258 -1.60748
18.1953 3.51733 -1.17168
18.3367 3.55795 -1.11751
18.5868 3.53906 -1.39328
17.7735 2.43137 -0.404533
18.2981 3.60587 -1.24178
17.4142 2.90524 -1.127
17.3775 2.89859 -1.49074
17.3457 2.84207 -1.64463
18.1086 3.39487 -0.735435
18.3602 1.70624 -0.463497
17.3682 2.21228 -1.88446
17.4774 2.81091 -0.786404
17.2954 2.85886 -1.84501
18.8919 2.99026 -0.633408
17.2024 2.54727 -1.80696
17.7215 2.75485 -0.472095
18.1713 3.11087 -0.459309
17.2735 2.67905 -1.87747
17.731 3.20627 -1.46042
17.352 2.23529 -1.38201
17.9562 3.16495 -0.498447
18.6335 3.4707 -1.43215
17.2438 2.69611 -1.54967
17.3367 2.94162 -1.66425
17.6055 2.81998 -0.50491
17.5512 2.3826 -2.10339
17.9484 1.51718 -1.52283
18.4195 3.48514 -0.638699
18.0713 2.98828 -0.487701
18.3269 3.68427 -1.7205
17.225 2.64905 -1.44812
17.8844 3.28265 -0.915997
17.2013 2.4136 -1.53475
18.3256 3.60248 -1.43452
17.6957 3.18069 -1.49424
17.6651 1.92307 -1.72073
18.2194 3.44183 -0.721409
17.6318 2.33432 -2.01765
17.328 2.94635 -1.77383
18.2467 2.68988 -0.446316
17.4021 2.98703 -1.70611
17.6212 2.31934 -2.06916
17.766 3.29868 -1.56044
17.8004 3.39203 -1.74472
18.4499 3.61276 -1.66051
17.4546 2.70901 -0.642487
17.4409 3.02985 -1.799
18.4636 3.09787 -0.384418
18.1603 3.48007 -0.934448
17.4158 2.84653 -0.970745
17.4055 2.89462 -1.10456
17.2967 2.3884 -1.06865
17.4707 3.08609 -1.79799
17.5038 2.52222 -0.517639
18.0421 2.25476 -0.475067
18.703 3.43826 -2.03053
18.3898 3.64056 -1.40227
17.4597 2.99368 -1.59866
17.5471 2.8053 -0.701267
17.237 2.74579 -1.7961
17.8781 3.30496 -1.14074
18.6096 3.2612 -2.11135
17.9288 3.4108 -1.31837
18.4382 3.64404 -1.2025
18.3934 3.60599 -1.10415
17.7634 3.19547 -0.977798
17.6167 3.13855 -1.07521
18.3443 3.50467 -0.806423
17.2594 2.71109 -1.63966
18.1847 3.44086 -1.05465
17.2755 2.431 -1.11006
17.5716 3.17511 -1.83672
18.0121 3.49042 -1.59176
18.0798 3.49365 -1.25253
17.7001 3.19174 -0.958252
17.453 2.97784 -1.67846
18.9215 2.95685 -1.0195
17.398 2.97815 -1.29179
18.2714 3.27173 -0.485832
18.1487 3.5983 -1.71595
18.4543 3.50748 -0.990952
17.5385 3.06479 -1.64187
17.9935 3.45456 -1.3012
18.106 3.46121 -1.10297
17.5516 3.14078 -1.20735
17.2931 2.54172 -1.038
17.2281 2.55383 -1.14664
17.6587 3.00732 -0.810238
18.4282 3.5856 -1.14789
17.3952 2.91119 -1.43983
18.7353 3.06326 -0.88908
17.8742 3.14059 -0.660889
17.1983 2.64096 -1.48833
18.0929 3.39706 -0.791077
18.0469 3.48874 -1.3465
17.9029 3.44342 -1.78891
18.0401 2.63989 -0.421967
18.2923 3.52185 -0.786823
18.9415 3.1377 -1.9348
19.6856 2.3685 -1.62252
18.4999 3.60092 -1.57951
18.4092 3.48697 -0.737961
17.4469 2.98245 -1.24254
18.192 3.14517 -0.505127
17.2458 2.71512 -1.43541
17.9613 3.43936 -1.48806
17.2977 2.5961 -0.869415
18.5685 3.21866 -2.04268
17.6491 2.42517 -0.525394
18.1442 3.51028 -1.20382
17.2929 2.41452 -1.09052
17.2994 2.67291 -0.95229
18.1854 3.40338 -0.644615
17.3892 2.58246 -0.561413
18.4244 3.63766 -1.75646
17.2931 2.46396 -1.04559
17.4101 2.95847 -1.39704
18.1767 3.46335 -1.07372
17.9046 3.31842 -0.978512
17.2954 2.72775 -1.05932
17.9315 3.43448 -1.66171
18.1267 3.53976 -1.50835
17.5241 3.05899 -1.24439
18.1595 3.52823 -1.13431
17.7931 3.30164 -1.24454
17.5458 3.07986 -1.10998
17.6603 3.21356 -0.98122
17.4903 2.06061 -1.20846
17.4378 2.73074 -0.793858
17.3575 2.83981 -1.14104
17.9178 3.08908 -0.477215
18.0952 3.36621 -0.777397
17.2594 2.75055 -1.48769
17.5863 3.10086 -1.1474
17.8946 3.40155 -1.29855
17.4868 2.04996 -1.4184
18.3977 3.57141 -1.51244
17.5657 2.39001 -0.524792
17.5837 3.14188 -1.25021
18.2987 3.62897 -1.31577
17.2724 2.61029 -1.13432
17.2614 2.34995 -1.40906
17.5333 3.08722 -1.04654
17.9803 3.4025 -1.04943
17.8583 3.38629 -1.28821
17.3209 2.50934 -0.80822
17.744 3.23721 -1.15359
17.37 3.02191 -1.73045
17.4038 2.54361 -0.547623
17.2833 2.63028 -0.886547
17.2276 2.7504 -1.75398
17.2401 2.74728 -1.40442
17.5065 3.05435 -1.55278
17.6037 3.07401 -1.45616
17.3911 2.67911 -0.667816
17.7624 3.24667 -0.940338
17.6319 3.20026 -1.2903
18.2308 3.5463 -1.67081
17.7278 2.99496 -0.493904
17.8184 3.23758 -0.779106
18.2847 3.60785 -1.80989
17.3938 2.94559 -1.80483
18.1588 3.35178 -0.671425
17.4919 2.09613 -1.87215
18.2269 3.56412 -1.56419
17.41 2.55341 -0.59848
18.3329 3.65396 -1.74827
17.4509 2.68317 -0.608238
18.2361 3.45169 -0.754147
17.4584 2.95572 -1.41048
17.6878 3.19766 -1.05761
17.8519 3.34103 -1.64205
17.6389 3.25046 -1.78701
17.4117 3.0293 -1.80793
19.0028 3.08865 -2.002
17.6477 3.22812 -1.85274
17.3063 2.87622 -1.76936
17.2312 2.40637 -1.43396
17.8896 3.35248 -1.57531
17.3648 2.80612 -1.05714
17.3243 2.71371 -1.12842
18.0073 3.24554 -0.503757
17.2861 2.73526 -1.64996
18.4853 3.1712 -0.445553
17.4371 2.88998 -1.00046
17.3085 2.83066 -1.54969
18.3962 3.55029 -1.52839
17.4829 3.04282 -1.34992
17.63 2.26431 -2.03088
17.1672 2.62137 -1.42903
18.061 3.52808 -1.82638
17.3873 2.90549 -1.39573
18.3179 3.4761 -0.75296
18.5059 3.19034 -0.485901
17.1412 2.50742 -1.5917
17.2979 2.76587 -1.33802
18.6615 2.94748 -0.492928
18.2932 3.59995 -1.82907
18.3637 3.41449 -0.507328
17.3519 2.86093 -1.50735
17.3752 2.30832 -1.9655
17.3332 2.49094 -1.07268
17.9116 2.59592 -0.382843
18.205 1.53625 -0.562031
17.4174 2.92859 -1.6594
17.3485 2.89462 -1.64103
17.43 2.90231 -0.957184
17.962 3.42142 -1.26803
17.5908 3.14236 -1.19025
17.1902 2.54855 -1.55033
17.3636 2.90231 -1.24735
17.5625 2.99298 -0.817673
17.7572 3.28366 -1.69281
17.368 2.36987 -1.95963
17.2962 2.79312 -1.54974
18.2541 3.49161 -0.806244
17.345 2.79248 -1.14949
17.5878 3.18796 -1.29057
17.3053 2.72256 -1.88695
17.6693 3.22687 -1.00234
18.208 3.40912 -0.830753
17.593 3.09589 -0.990574
17.4901 2.44357 -2.03145
17.9654 3.39114 -1.8659
18.8048 3.32736 -2.09743
18.3479 3.5369 -0.792011
18.0382 2.6738 -0.39542
17.9452 3.4827 -1.79585
18.3562 3.36365 -0.55481
17.3279 2.40424 -0.844616
17.1657 2.52213 -1.63197
18.2895 3.5809 -1.15104
18.1201 3.46652 -1.12945
17.7381 3.24954 -1.0443
18.295 3.56039 -1.10088
17.6452 3.19861 -1.34765
18.4511 3.58621 -1.18322
17.3851 2.64444 -0.659332
18.4028 3.55389 -1.08298
18.2041 3.56738 -1.53782
17.7923 3.24432 -1.44947
18.3634 3.59232 -1.04561
17.9843 3.45578 -1.3315
18.2038 3.3472 -0.502483
17.3248 2.40155 -0.962513
17.3992 2.85217 -1.14861
17.3777 2.90335 -1.2967
18.0953 3.50641 -1.43739
17.8227 3.30972 -1.17421
17.8514 3.32098 -1.13888
18.2118 3.40891 -0.690392
18.0088 3.44443 -1.68337
17.8935 3.39169 -1.60917
17.7489 3.30075 -1.38271
17.8427 3.34753 -1.88859
17.4271 2.83762 -1.00068
17.2816 2.76096 -1.61306
17.3517 2.85782 -1.38086
18.342 3.52994 -0.840885
17.3031 2.65607 -1.04732
17.7071 3.25595 -1.29048
18.2889 3.4552 -0.696297
17.7931 3.33539 -1.154
18.5379 3.582 -1.33546
18.0067 3.51932 -1.76666
17.6138 2.85883 -0.586964
17.2535 2.84686 -1.78082
18.4465 3.62753 -1.34672
18.3855 3.3345 -0.493778
17.6102 3.08313 -1.03975
18.1447 3.55014 -1.54505
18.1963 1.28845 -1.69101
17.5699 3.00528 -0.840298
17.5001 3.0289 -1.86734
17.6557 2.7236 -0.492348
18.3505 3.5087 -0.836891
18.2691 3.62 -1.26885
17.5685 1.96729 -1.20141
17.223 2.45999 -1.73906
18.0438 3.54361 -1.66358
17.763 2.2345 -0.468391
17.8476 3.43042 -1.75125
17.2091 2.3638 -1.48758
18.1944 3.50269 -0.999603
18.3817 3.55118 -1.50328
18.1944 3.44012 -0.800415
18.2006 3.36368 -0.577068
17.8905 3.29181 -0.84066
17.7758 3.28104 -1.1074
18.2859 3.59113 -1.64469
17.5748 3.10538 -1.23301
17.736 3.32663 -1.79962
18.6488 3.47577 -1.69469
17.2571 2.67084 -1.11444
18.1995 3.62292 -1.69818
17.5466 3.06448 -0.876865
17.241 2.78085 -1.79765
17.9565 3.30655 -0.632236
17.6335 3.21396 -1.87639
17.611 3.23398 -1.73141
17.6368 3.14279 -1.56322
17.7814 3.29739 -1.28934
17.1908 2.61905 -1.4552
17.7046 3.20047 -0.989689
17.3362 2.81158 -1.66079
17.7581 3.35095 -1.69362
17.9267 3.35013 -1.45733
17.6557 3.189 -1.64536
17.8927 3.43893 -1.36244
17.4947 2.7771 -0.766068
18.5442 3.41122 -1.93591
17.1846 2.49805 -1.48881
17.8425 3.33917 -1.60006
17.4743 2.75604 -0.719078
17.9025 3.29037 -0.949234
18.6157 3.49344 -1.65211
17.6299 2.90421 -0.508041
18.33 2.93399 -0.389687
17.8351 3.2901 -0.852051
17.7791 3.35574 -1.73971
18.5463 3.25485 -2.0479
18.2745 3.00842 -0.550419
17.7605 2.44217 -0.370422
18.1436 2.55878 -0.398464
18.2229 1.24377 -1.67029
17.5795 2.97067 -0.909466
18.3073 3.60379 -1.29959
17.5287 3.10004 -1.79237
17.1648 2.54654 -1.25459
17.9247 2.58459 -0.352798
17.1674 2.65131 -1.78357
17.6795 3.24899 -1.84008
18.076 3.51117 -1.60264
17.1929 2.5752 -1.31412
17.6587 3.11566 -0.937462
18.3415 3.44724 -0.741451
17.7329 2.89279 -0.469238
17.5017 2.00891 -1.34617
18.4781 3.60535 -1.66103
17.7196 3.22836 -1.67326
18.5257 3.41547 -1.90643
18.4825 3.59579 -1.24895
18.0368 3.44601 -1.15207
17.2323 2.60965 -1.27319
17.7135 2.35123 -0.412952
17.2908 2.80753 -1.27763
18.2387 3.591 -1.19948
18.4565 3.6174 -1.50189
17.7897 3.3085 -1.58869
18.3592 3.62918 -1.39211
18.1551 3.55148 -1.44154
17.4086 2.99118 -1.34086
17.4248 2.97021 -1.84167
17.1611 2.44916 -1.54234
18.9801 2.95804 -0.830467
18.2611 3.60764 -1.78275
18.0936 3.52917 -1.4439
18.2416 3.57059 -1.06495
18.6455 3.45517 -1.94531
18.1726 3.44324 -0.957458
18.3541 3.62701 -1.24099
18.0764 3.50348 -1.20011
17.7029 3.18546 -1.4447
18.1774 3.41888 -0.756695
17.4589 3.08047 -1.77387
17.2496 2.66122 -1.35111
17.2478 2.74545 -1.45176
17.4177 2.74808 -0.81665
17.3519 2.41803 -0.752579
18.5174 3.24359 -1.97089
18.2405 3.09314 -0.479759
17.9586 3.42633 -1.599
17.3173 2.42761 -1.91702
17.7414 3.27829 -1.03331
18.3841 3.46677 -0.571026
17.3999 2.98862 -1.7857
18.5028 3.28943 -2.01727
17.7459 3.24948 -1.19609
17.5747 3.10678 -1.69572
18.5952 3.48453 -1.89703
17.3641 2.97168 -1.73534
18.1998 3.57498 -1.34572
17.6713 2.89423 -0.547585
17.7528 2.7598 -0.458561
18.038 3.48746 -1.54794
17.1635 2.56775 -1.36577
18.5729 3.36295 -2.00113
17.8037 3.26346 -1.48868
18.5341 3.5679 -1.54651
18.2646 3.38138 -0.625347
18.2887 3.50858 -1.03412
17.6613 1.86115 -1.19831
17.8127 3.17758 -0.921188
18.9634 2.92331 -1.05115
18.146 3.31091 -0.529728
18.4508 3.05289 -0.445282
17.2352 2.6882 -1.7121
17.7915 3.25067 -0.75272
17.2294 2.56641 -1.64126
17.9915 2.64847 -0.348694
17.2452 2.40268 -1.70552
18.0958 1.98105 -0.451435
17.2603 2.68896 -1.13404
18.7997 3.03342 -0.516346
17.4949 3.07486 -1.2625
17.761 2.31021 -0.514393
17.5836 3.02838 -0.947712
17.653 3.1619 -1.20132
17.3911 2.90286 -1.59991
18.4796 3.09174 -0.40752
17.3494 2.66138 -0.874668
17.2249 2.66345 -1.48325
18.0206 3.50949 -1.76021
18.6018 3.35757 -2.04342
17.3607 2.70773 -0.940525
17.4529 2.97559 -1.56391
17.9315 3.35733 -1.49807
17.4065 2.91122 -1.86049
17.3468 2.8493 -1.29642
17.6188 1.96515 -1.80422
18.422 3.18661 -0.462883
18.1698 2.63263 -0.480885
17.4622 2.94339 -1.87855
18.3157 2.97284 -0.343521
17.4604 2.95001 -1.44532
18.0356 3.50723 -1.78691
17.9316 3.50177 -1.71571
18.228 3.56165 -1.26119
17.9876 1.58075 -1.78637
17.4028 2.32834 -2.03225
17.6607 3.18182 -1.15346
18.0399 2.7236 -0.397598
17.8649 3.43207 -1.66748
17.5081 3.08655 -1.56808
18.2634 3.46835 -0.660206
17.2577 2.32907 -1.53875
18.3182 3.56052 -1.12632
17.3457 2.85181 -1.84058
17.8358 3.35489 -1.40093
17.3243 2.25821 -1.89421
17.4719 2.85062 -0.826385
17.907 3.39865 -1.65595
18.419 3.5072 -0.896641
17.2078 2.64096 -1.4455
17.5129 2.8541 -0.875538
18.2773 2.74469 -0.425449
17.8317 3.39706 -1.79786
18.5324 3.16486 -0.482979
17.8792 2.83237 -0.491081
18.4045 3.58765 -1.84447
18.8994 3.14529 -1.3903
18.0059 3.44186 -1.09589
18.3306 3.5994 -1.1446
17.7462 3.24454 -1.55349
17.4446 2.32986 -2.07952
18.3383 3.52625 -0.966702
18.1759 3.30011 -0.520233
18.2031 2.83908 -0.356773
17.5228 2.40872 -2.06858
17.409 2.91635 -1.63594
18.0475 3.50281 -1.37672
17.9533 3.23633 -0.502014
17.4474 2.67899 -0.555466
17.7267 3.05649 -0.786736
17.5687 2.79025 -0.587639
17.778 2.82581 -0.511868
18.0945 3.33868 -0.752083
17.4114 2.94345 -1.45664
17.5549 3.10159 -1.64181
18.0336 3.48337 -1.87267
17.5354 3.03714 -1.04747
18.3107 1.19772 -1.75633
18.4364 3.48969 -0.918423
18.3309 2.78424 -0.446766
18.3038 3.12421 -0.520233
17.2995 2.50302 -0.942001
18.6439 3.34457 -2.0903
17.6759 2.70139 -0.471745
18.4879 3.51404 -1.85179
18.4462 3.6499 -1.49222
17.9966 3.444 -1.24284
17.3134 2.29294 -1.84547
17.4327 2.97034 -1.21029
18.5039 3.57196 -1.82668
17.6471 3.15042 -1.1431
18.4274 3.03799 -0.383228
17.3113 2.54898 -0.849594
17.8068 3.36322 -1.39927
17.8857 3.32495 -0.869175
18.2576 3.45074 -0.788502
17.7451 3.28253 -1.59799
18.0298 3.06192 -0.500195
17.8182 3.28644 -1.45147
18.1951 3.4567 -0.87188
18.3998 3.42599 -0.65271
17.4651 2.60654 -0.516029
17.9377 3.39706 -1.5965
18.6783 3.43741 -1.48917
18.7931 3.08725 -0.998344
17.2872 2.69144 -1.14834
18.4265 3.46902 -0.879982
18.137 2.78326 -0.395058
17.6409 3.2507 -1.75193
17.4562 2.30554 -2.08002
17.3317 2.21304 -1.42618
18.4586 3.61475 -1.79148
18.141 3.44016 -0.850967
17.5447 3.09003 -1.15345
18.2021 3.53723 -1.0281
18.2795 3.51425 -0.992638
17.2911 2.47495 -0.85754
18.1989 3.57907 -1.82182
18.1103 3.55093 -1.28912
18.4611 3.0672 -0.360016
17.8823 3.44687 -1.6988
18.2192 3.47348 -0.866455
17.4965 3.08243 -1.83731
17.3036 2.50821 -0.78463
17.4859 3.00031 -1.19701
18.5539 3.55609 -1.5952
17.5388 3.09702 -1.59975
17.3502 2.50412 -0.697613
19.4876 2.59891 -1.5371
17.8978 3.40372 -1.38741
17.7047 3.28522 -1.79134
17.2098 2.62869 -1.39289
17.314 2.79907 -1.68653
17.2795 2.74472 -1.29279
18.5969 3.46176 -1.83625
17.437 2.11093 -1.33132
18.5707 3.39072 -1.96726
17.6299 3.18875 -1.39569
18.0433 3.5466 -1.69884
17.908 3.1861 -0.510853
17.3434 2.42902 -0.76614
18.4951 3.46878 -0.852093
18.2148 3.56168 -1.23504
18.1246 3.38498 -0.711151
18.3341 3.52396 -0.754482
18.2059 3.55417 -1.63725
17.1845 2.65909 -1.80864
17.7251 3.25674 -1.32279
17.4828 2.95035 -0.953869
17.2044 2.7157 -1.79171
17.29 2.85214 -1.68902
17.5353 3.08649 -1.30081
17.5021 3.04581 -1.64906
17.5992 3.22662 -1.79671
17.2392 2.63333 -1.30795
17.7082 3.13882 -0.989277
18.1412 3.59283 -1.74745
17.671 1.9014 -1.82333
17.9675 3.42087 -1.21593
17.2793 2.67041 -1.20965
17.7453 3.23114 -1.09633
17.9292 2.50745 -0.497219
17.7197 1.7764 -1.25361
17.9227 3.46194 -1.80017
17.6785 3.20071 -1.19918
18.0512 3.49857 -1.50318
18.0833 3.43329 -1.91613
18.381 3.30539 -0.539326
17.8044 3.31461 -1.32175
17.2754 2.75784 -1.38831
18.5395 3.58966 -1.45639
17.8992 3.345 -1.03778
17.8631 3.45352 -1.68878
17.7019 2.94418 -0.493149
17.4214 2.96216 -1.18593
19.0149 3.01929 -1.0087
17.5886 3.14389 -1.69182
18.5975 3.45151 -1.92894
17.3134 2.73245 -1.09186
17.406 2.72513 -0.736263
17.3964 2.91397 -1.5337
17.6982 3.24466 -1.03486
17.978 3.47055 -1.45146
18.5847 3.20496 -2.08021
18.0149 3.46622 -1.48103
17.5799 2.13113 -0.746868
17.2134 2.68076 -1.35525
17.3661 2.88681 -1.5527
17.9578 2.66086 -0.511105
18.0558 3.59464 -1.69404
17.3269 2.73596 -1.90328
18.0325 3.41647 -1.06945
17.4616 2.94583 -1.1301
17.2043 2.54486 -1.19296
17.3821 2.82904 -1.10288
17.607 3.19827 -1.34282
17.798 3.40308 -1.64988
17.3255 2.83542 -1.44781
18.4093 3.05417 -0.39864
18.0606 3.49225 -1.19269
17.884 3.40359 -1.34048
17.9904 3.22998 -0.528854
18.3406 2.83978 -0.478977
17.2418 2.69119 -1.39395
17.5453 3.12827 -1.65316
17.2981 2.79724 -1.22035
18.7528 3.37485 -1.59459
17.9287 3.35172 -0.94659
17.2538 2.73163 -1.55375
17.9847 3.44003 -1.20251
17.1647 2.50842 -1.30217
17.2769 2.65219 -1.18645
17.5098 3.07077 -1.2859
18.1417 3.315 -0.64827
17.2307 2.47415 -1.76403
17.6693 3.28632 -1.69235
18.3743 3.6373 -1.79796
17.4627 2.97842 -1.15578
18.3552 3.63242 -1.79187
18.1349 3.58621 -1.80178
18.3144 3.6861 -1.69753
18.3007 3.64828 -1.69225
18.2921 3.63797 -1.66433
18.2808 3.62119 -1.61945
18.2763 3.59641 -1.60305
18.2536 3.58548 -1.5872
18.039 3.49188 -1.64191
18.2399 3.60168 -1.50095
18.0501 3.49979 -1.59733
18.2084 3.58932 -1.4896
18.39 3.64282 -1.35233
18.1969 3.58459 -1.44459
17.9868 3.49118 -1.54551
18.1587 3.58298 -1.38167
18.3392 3.63455 -1.29324
17.9632 3.48541 -1.5013
18.138 3.57275 -1.34472
18.3296 3.61154 -1.24499
18.3406 3.60526 -1.20023
18.296 3.59448 -1.19056
17.906 3.46814 -1.38999
18.086 3.54187 -1.2467
18.2493 3.5434 -1.09567
18.049 3.48608 -1.15268
18.2307 3.52969 -1.03593
18.4479 3.49042 -0.946537
17.8349 3.38467 -1.24721
18.0186 3.47543 -1.12071
18.3843 3.52792 -0.849941
17.8089 3.35556 -1.1917
18.1912 3.50262 -0.956406
17.7916 3.2894 -1.19905
17.805 3.26462 -1.17956
17.7921 3.28458 -1.14698
17.7589 3.27994 -1.0901
18.3335 3.47382 -0.738991
18.5031 3.23068 -0.488895
18.2472 3.37119 -0.570553
18.5108 3.08582 -0.454758
18.211 3.39526 -0.532787
18.2463 3.14151 -0.487011
17.3271 2.72125 -1.03912
17.9568 3.20135 -0.532963
17.953 3.19498 -0.493752
17.7323 2.94223 -0.535282
17.7057 2.98615 -0.51421
17.9477 2.60443 -0.378609
17.7323 2.32202 -0.436638
18.1343 2.76965 -0.366554
17.7795 3.33017 -1.85048
17.4086 2.3367 -0.7407
18.0076 1.54358 -1.76683
18.3188 2.60654 -0.414967
17.2215 2.5575 -1.60917
17.7424 2.98843 -0.546234
17.8542 3.37076 -1.43845
18.0316 3.25598 -0.57888
17.4209 2.84808 -1.08941
17.5101 2.87491 -0.62381
18.6241 3.13998 -2.1011
18.6294 3.01193 -2.07331
18.5263 3.22641 -1.96543
18.4855 3.60901 -1.53775
18.064 3.55966 -1.73561
17.8984 3.40585 -1.84204
17.8827 3.41006 -1.79469
18.4314 3.64273 -1.45827
17.8633 3.43774 -1.78326
18.3986 3.64508 -1.44859
17.8549 3.40518 -1.73421
17.8313 3.40158 -1.69216
18.1798 3.56583 -1.45756
17.6418 3.19681 -1.7965
17.791 3.39386 -1.6979
17.6532 2.26279 -2.09565
17.7983 3.33914 -1.63174
17.6055 2.30185 -2.03559
17.7851 3.31992 -1.60182
18.1376 3.54745 -1.34206
17.596 3.22885 -1.69631
17.948 3.42682 -1.45797
18.125 3.51755 -1.34125
17.5948 3.18384 -1.6916
18.0954 3.50674 -1.29667
18.5361 3.48712 -1.1244
17.5533 3.20181 -1.65879
17.9371 3.3728 -1.42038
18.5101 3.51733 -1.09341
17.5986 3.14804 -1.64481
17.3814 2.99875 -1.75212
18.247 3.56036 -1.1492
17.7434 3.22672 -1.49284
18.0615 3.4845 -1.24222
18.4458 3.53928 -0.994278
17.3573 3.01953 -1.70602
17.3572 2.98856 -1.70628
17.5364 3.09113 -1.5656
18.0396 3.45645 -1.19409
17.3454 2.95117 -1.6944
17.5404 3.05103 -1.53771
18.0176 3.43246 -1.13371
18.1946 3.52301 -1.0097
17.4975 2.98889 -1.49662
17.8197 3.37732 -1.21344
17.3311 2.8093 -1.60774
18.0004 3.39728 -1.08683
17.3127 2.83255 -1.59058
17.481 2.96158 -1.44736
18.1521 3.49518 -0.90287
17.9594 3.34756 -0.992184
18.1409 3.44681 -0.889381
18.3426 3.4436 -0.779591
17.4411 2.97919 -1.34964
19.0499 2.74829 -0.557789
17.4329 2.93802 -1.3446
18.1225 3.39542 -0.83363
18.3093 3.45724 -0.730564
17.4244 2.91757 -1.325
18.3686 3.43686 -0.528503
18.0983 3.43942 -0.814854
17.3829 2.98663 -1.26702
17.7139 3.28705 -1.00308
17.3911 2.89502 -1.22983
17.539 3.02643 -1.10399
18.5139 2.95905 -0.393906
17.3154 2.70358 -1.09238
17.2962 2.69843 -1.05326
17.9445 3.17084 -0.463844
17.9892 3.45468 -1.44276
18.2315 2.85089 -0.352898
17.982 2.94061 -0.439381
18.2324 2.80115 -0.334263
17.987 2.87775 -0.424355
18.152 2.13666 -0.416149
17.3423 2.57669 -0.694153
17.5161 2.79858 -0.551666
17.3481 2.59293 -0.657669
17.5843 2.00418 -1.83359
17.4283 2.15485 -1.87735
17.5567 3.18173 -1.70319
17.831 3.3074 -1.48243
18.21 3.60269 -1.68938
17.1945 2.64206 -1.6976
17.7979 1.76016 -1.71327
17.6293 3.13474 -1.87788
18.4354 2.65558 -0.439423
17.5773 3.07486 -1.5259
17.5983 3.14847 -1.38054
17.4819 2.95618 -1.09536
17.254 2.72205 -1.15048
18.514 3.5498 -1.73859
18.5421 3.55441 -1.70255
17.6619 2.35663 -0.459034
18.694 3.42264 -1.9902
18.6233 3.47791 -1.894
18.6105 3.47641 -1.86982
18.4028 3.36612 -1.91213
18.4757 3.58771 -1.69214
18.0389 3.49857 -1.83708
18.4301 3.63437 -1.62695
18.0305 3.52994 -1.79107
18.4067 3.63803 -1.59452
18.1966 3.58618 -1.65478
18.3886 3.61069 -1.54991
18.7233 3.37549 -1.52915
18.006 3.51117 -1.739
17.9874 3.49982 -1.70485
18.663 3.44019 -1.46445
17.7948 3.38986 -1.79276
18.3448 3.60257 -1.47219
17.9867 3.44354 -1.6467
18.5865 3.52823 -1.34464
18.5051 3.60458 -1.29282
17.6196 3.2016 -1.82184
18.1064 3.53439 -1.48267
17.9453 3.39713 -1.54898
18.2817 3.59476 -1.34024
17.7087 2.19669 -2.13088
17.7509 3.34402 -1.6526
17.6893 2.24115 -2.09458
17.5827 3.18997 -1.74701
17.7502 3.28116 -1.6498
18.2505 3.58429 -1.29855
17.6734 2.24792 -2.06629
18.0894 3.50723 -1.38777
17.8898 3.34824 -1.49641
18.2282 3.57285 -1.2478
18.4177 3.59735 -1.14002
18.0392 3.48355 -1.29466
18.1998 3.54285 -1.19403
18.8327 3.11765 -1.08274
18.0202 3.4679 -1.27846
18.3737 3.6012 -1.0681
17.8389 3.35184 -1.35321
18.1826 3.50357 -1.13605
18.1878 3.50565 -1.10579
18.1614 3.48709 -1.09182
18.7623 3.08896 -0.949005
18.1409 3.47729 -1.05119
17.9616 3.38794 -1.14181
18.7396 3.08905 -0.912163
17.3302 2.85956 -1.60774
18.3009 3.51343 -0.89579
17.949 3.35794 -1.09761
18.7009 3.09015 -0.849953
18.1004 3.47229 -0.975346
17.7614 3.2695 -1.17992
18.0897 3.43634 -0.94017
18.2725 3.51547 -0.850136
17.929 3.34518 -1.05529
18.2673 3.49445 -0.829567
18.4849 3.47107 -0.735065
17.2913 2.80743 -1.49255
18.0868 3.39767 -0.910149
17.2597 2.79572 -1.48301
17.5616 3.14832 -1.22806
17.904 3.33572 -0.999882
18.4391 3.44669 -0.695621
18.4448 3.46268 -0.665512
17.3917 2.95218 -1.29527
17.5493 3.10065 -1.19981
18.8705 2.98532 -0.596386
18.4043 3.47159 -0.606083
17.5439 3.04633 -1.14293
18.3769 3.44977 -0.549324
17.3479 2.84384 -1.19316
17.4942 2.99506 -1.0491
18.1766 3.37363 -0.613701
17.1956 2.59592 -1.34538
17.1938 2.6329 -1.29299
18.3925 3.28488 -0.475204
17.1864 2.56451 -1.28768
17.335 2.74313 -1.14034
18.4827 3.01495 -0.456078
18.1298 3.31439 -0.505844
18.1112 3.32574 -0.482559
18.4128 3.03583 -0.359066
17.2921 2.69632 -0.994755
17.2945 2.58841 -0.98687
17.9226 3.11252 -0.496815
17.268 2.59442 -0.966408
17.26 2.52521 -0.929317
17.9437 2.88608 -0.453297
17.7097 2.86548 -0.469555
18.157 2.21753 -0.417488
17.9905 2.61896 -0.356022
17.5214 2.72852 -0.543533
17.9017 2.13806 -0.441902
18.2911 3.62323 -1.53123
18.5304 3.14606 -0.458351
18.1095 3.37759 -0.685829
18.301 3.60065 -1.69934
18.0882 3.57486 -1.7008
17.533 3.07974 -1.68552
17.278 2.69901 -1.2401
17.207 2.69495 -1.48594
18.1357 3.51886 -1.39767
18.6875 3.29489 -2.10229
18.6245 3.35938 -2.0565
18.5934 3.38968 -2.0064
18.8763 3.21567 -1.88314
18.8595 3.21674 -1.85528
18.8046 3.28171 -1.81144
18.3732 3.60309 -1.78509
18.7001 3.42841 -1.74571
18.1759 3.54321 -1.84769
18.3443 3.64267 -1.69791
19.343 2.64502 -1.72446
17.9471 3.44159 -1.83108
19.2115 2.82971 -1.65377
19.1022 2.97696 -1.58997
19.0757 2.97937 -1.54852
17.8988 3.44632 -1.74247
18.0858 3.52771 -1.65081
18.0895 3.49924 -1.6336
19.0185 3.00601 -1.47581
17.7282 3.30234 -1.79092
17.867 3.39615 -1.64838
17.7063 3.30606 -1.74861
18.896 3.12396 -1.36817
17.6922 3.26709 -1.74982
18.1754 3.58063 -1.40643
17.686 3.28116 -1.70671
18.1698 3.55576 -1.39459
17.6643 3.24802 -1.66092
17.8418 3.32663 -1.56962
17.6392 2.27441 -2.05338
17.5007 3.10004 -1.73984
17.6795 3.20346 -1.63026
17.9592 3.44516 -1.40088
18.1365 3.55026 -1.29488
17.6484 3.18329 -1.59928
17.3518 2.89221 -1.84258
17.4887 3.08514 -1.70158
17.9402 3.43317 -1.35615
17.3356 2.88754 -1.80785
18.5258 3.50427 -1.06411
17.9342 3.41556 -1.33122
17.4817 3.00742 -1.646
17.2991 2.85938 -1.74376
17.482 2.96722 -1.63505
19.0176 2.98895 -0.988811
17.6204 3.09296 -1.49222
17.7325 3.27878 -1.3454
18.4526 3.52448 -0.96286
17.4367 2.9462 -1.5971
17.6119 3.09299 -1.48618
17.4398 2.95251 -1.53912
17.8757 3.37079 -1.21174
18.0437 3.44211 -1.09548
17.5974 3.0571 -1.4313
17.8498 3.33987 -1.19408
17.4113 2.92917 -1.4876
17.6905 3.24042 -1.25107
18.0091 3.43796 -1.04118
17.2781 2.70804 -1.6052
17.5409 3.09222 -1.34655
17.6889 3.21646 -1.23624
17.9987 3.42349 -1.01867
17.8454 3.29684 -1.10042
17.9892 3.40146 -0.988132
17.6645 3.19617 -1.18245
17.8384 3.29526 -1.05474
17.9667 3.40405 -0.953243
17.3502 2.88852 -1.39783
17.7952 3.29861 -1.04033
17.2342 2.69205 -1.50782
17.4988 3.03482 -1.24259
17.7836 3.28925 -1.00562
18.1239 3.44876 -0.801704
17.3361 2.84891 -1.34752
17.6438 3.14203 -1.0979
17.9422 3.33032 -0.906906
18.1243 3.4028 -0.780579
17.4894 3.03036 -1.19461
17.7909 3.25381 -0.985413
17.6292 3.09369 -1.08778
17.6405 3.08728 -1.05634
18.5768 3.29117 -0.54607
17.2024 2.59103 -1.39939
17.3233 2.8013 -1.26619
17.1986 2.55777 -1.38649
17.5949 3.04553 -0.997864
17.2028 2.51044 -1.37171
17.4522 2.90363 -1.09483
17.7542 3.12607 -0.875729
17.2881 2.75766 -1.20162
17.5859 3.00809 -0.951317
17.4319 2.90225 -1.04532
18.1611 3.56213 -1.57314
18.2395 3.37314 -0.5173
18.2473 3.32913 -0.497189
18.3746 3.06955 -0.503834
17.2792 2.62274 -1.10046
17.2836 2.55997 -1.08054
18.1711 2.86838 -0.483494
18.3665 2.90976 -0.375416
17.2775 2.47946 -1.0119
17.8131 3.10651 -0.511696
18.1336 2.75934 -0.351353
17.3471 2.55688 -0.742989
17.61 2.9003 -0.486263
17.6988 2.61536 -0.456509
17.4501 2.64877 -0.542259
18.9576 3.1239 -1.68731
18.1987 3.4451 -0.836472
18.6741 3.38098 -1.09672
17.6174 2.31445 -2.08216
17.5719 2.3927 -0.508286
17.3932 2.78552 -0.850498
17.3073 2.79437 -1.6011
18.6564 3.47766 -1.98973
18.6263 3.49634 -1.95768
18.616 3.48877 -1.93429
18.2538 3.59988 -1.89029
18.2033 3.62909 -1.83164
18.399 3.65118 -1.72762
18.1928 3.60153 -1.79113
18.3966 3.62146 -1.6979
18.175 3.60318 -1.76314
17.9879 3.49203 -1.84257
17.9799 3.49957 -1.80538
18.1655 3.53976 -1.69444
17.9494 3.52231 -1.76212
18.6321 3.51257 -1.53075
17.8043 3.38638 -1.83335
17.9395 3.48892 -1.74854
18.1399 3.53189 -1.64595
18.5721 3.56866 -1.48798
17.9473 3.44333 -1.69517
18.109 3.53116 -1.59494
18.2776 3.61954 -1.50665
18.5133 3.60361 -1.42836
17.7781 3.35556 -1.7835
18.4929 3.6098 -1.40246
17.7617 3.34744 -1.74921
18.0824 3.52618 -1.54766
18.2497 3.60477 -1.44988
18.4627 3.62808 -1.37217
17.6085 3.21951 -1.83646
17.9173 3.43292 -1.63675
19.3704 2.72574 -1.47775
19.2372 2.8757 -1.41574
19.1444 2.97232 -1.36534
18.0351 3.4939 -1.44454
18.3775 3.64478 -1.25605
17.4529 3.02878 -1.88121
17.4426 3.04391 -1.8433
17.7349 3.26062 -1.63742
17.4189 3.04193 -1.82956
17.7435 3.24997 -1.60881
18.0082 3.47818 -1.38834
18.1737 3.56882 -1.29953
18.3523 3.62485 -1.20002
18.0016 3.47543 -1.34222
18.1574 3.53485 -1.2451
17.8267 3.36487 -1.43319
17.2909 2.77701 -1.88547
17.258 2.78644 -1.83186
17.693 3.16113 -1.49188
17.7921 3.33447 -1.3447
18.2922 3.54507 -1.0479
18.9916 2.92459 -1.09411
17.3844 2.89749 -1.6837
17.9477 3.40964 -1.2358
17.5269 3.00104 -1.53781
17.9471 3.39041 -1.18668
17.2412 2.69336 -1.73672
17.7516 3.28516 -1.2486
17.9337 3.36514 -1.1447
17.2583 2.62152 -1.72718
17.8973 3.33566 -1.14971
17.3271 2.86172 -1.54594
17.6027 3.15909 -1.32956
17.9076 3.33969 -1.09692
18.0493 3.44272 -0.999908
18.2323 3.48984 -0.900246
17.4464 3.01929 -1.4136
17.5886 3.1424 -1.29609
17.3071 2.84586 -1.50089
18.0279 3.43997 -0.964642
18.0352 3.40503 -0.946827
18.228 3.43991 -0.850693
17.5612 3.1142 -1.23824
17.7125 3.21619 -1.13255
18.0532 3.35638 -0.9342
17.2051 2.56107 -1.59502
17.2875 2.79581 -1.44535
17.6986 3.20087 -1.09847
17.8578 3.28793 -0.996006
18.4011 3.46173 -0.707718
18.1815 3.41086 -0.780914
18.3737 3.47794 -0.682236
17.3001 2.79666 -1.39803
17.3725 2.84152 -1.68622
17.544 3.05496 -1.18976
17.8651 3.23972 -0.969227
18.3644 3.45657 -0.649517
17.3988 2.93539 -1.25329
18.1507 3.43573 -0.73127
17.2536 2.73679 -1.34996
18.3434 3.43576 -0.599922
17.5382 3.00824 -1.09314
19.0365 2.79358 -0.580521
18.3551 3.39645 -0.571991
17.2365 2.69321 -1.29142
17.3721 2.86505 -1.1823
17.2337 2.64493 -1.24415
18.1059 3.32816 -0.602211
18.0925 3.29431 -0.547325
17.2296 2.5939 -1.19746
17.2384 2.48798 -1.18319
18.1572 3.16449 -0.509621
17.8889 3.138 -0.545616
18.4308 2.64267 -0.471115
18.2442 2.89304 -0.408142
17.3157 2.61246 -0.938988
17.7258 3.01822 -0.580223
17.3024 2.58423 -0.894958
17.3321 2.5007 -0.850235
17.5445 2.7746 -0.555325
17.387 2.59695 -0.590813
17.8667 2.5354 -0.42395
17.7064 2.33844 -0.471397
18.0518 3.46692 -1.23399
17.5116 2.08719 -1.82098
17.7539 3.32797 -1.82362
17.3426 2.83694 -1.24294
17.2913 2.85526 -1.79837
17.4953 3.01141 -1.59114
18.5551 3.36279 -1.97451
18.37 3.55005 -1.88058
18.6947 3.42914 -1.79792
18.0935 3.51398 -1.85504
17.8594 3.39359 -1.84354
18.3853 3.62558 -1.54802
17.9639 3.52136 -1.67222
17.7936 3.34067 -1.69254
17.9942 3.44357 -1.59328
17.7866 3.30649 -1.6507
18.2389 3.5686 -1.2835
18.476 3.57382 -1.2038
17.7005 2.36459 -2.04461
17.4573 3.05087 -1.74641
17.4872 2.30811 -2.11707
17.3708 2.83859 -1.87227
17.4334 3.04001 -1.6982
17.5917 3.13156 -1.59748
17.868 3.37137 -1.38863
18.0104 3.48007 -1.2842
18.4198 3.55566 -1.10813
17.4487 2.33615 -2.04993
17.7326 3.20114 -1.49295
18.4241 3.49966 -1.05811
17.3949 2.34259 -1.99731
17.444 2.95773 -1.64715
17.8357 3.34924 -1.31995
17.6752 3.23181 -1.38978
17.5597 3.07825 -1.50102
17.2561 2.48886 -1.85902
17.2564 2.84961 -1.68955
17.5519 3.03613 -1.49252
17.2942 2.74161 -1.69144
17.4152 2.92175 -1.57053
17.2758 2.42062 -1.84068
18.1336 3.43661 -1.00603
17.3067 2.34354 -1.83453
17.3272 2.29428 -1.84247
17.4941 3.06155 -1.38358
19.1643 2.79889 -0.912968
17.7755 3.24673 -1.13666
19.1001 2.84586 -0.875416
17.2471 2.70084 -1.59564
17.3588 2.87912 -1.44448
17.4569 3.0343 -1.3021
18.8593 3.06931 -0.783424
18.0422 3.43195 -0.872974
18.255 3.41547 -0.742393
17.3095 2.82809 -1.32414
17.5813 3.06534 -1.10019
17.879 3.26645 -0.893063
17.2962 2.82324 -1.2989
17.4141 2.93796 -1.15415
17.6939 3.15048 -0.928856
17.5337 3.03214 -0.99929
17.7019 3.15152 -0.896294
17.8448 3.26013 -0.79171
17.1833 2.52963 -1.34195
18.0152 3.27646 -0.685364
17.2636 2.74356 -1.18302
17.5234 3.01227 -0.966465
17.9629 3.32016 -0.654316
18.1898 3.34094 -0.549675
18.1782 3.31778 -0.540771
18.022 3.20322 -0.624691
17.2743 2.61884 -1.10006
17.9537 3.22617 -0.551495
17.2663 2.59836 -1.08965
17.7655 3.06641 -0.545055
18.3364 2.55026 -0.437714
17.5977 2.85043 -0.544296
17.3279 2.58755 -0.747169
18.1408 2.36652 -0.433708
17.6347 2.26904 -0.496033
17.7476 2.4425 -0.377022
17.3362 2.74887 -1.09894
18.3836 2.94559 -0.482773
17.9057 1.66663 -1.79104
18.5956 3.43652 -1.91064
18.7696 2.98618 -2.11561
18.192 3.50052 -1.86813
18.1468 3.52322 -1.8305
18.1033 3.53864 -1.78775
18.2676 3.56491 -1.6181
17.7117 3.29675 -1.83244
18.0302 3.46555 -1.61341
17.9903 3.45648 -1.55039
18.2971 3.63242 -1.3555
17.5537 3.10156 -1.83378
17.6475 3.24835 -1.69221
18.0965 3.50745 -1.33456
17.3924 2.93655 -1.83847
17.3703 2.9151 -1.80892
17.4669 3.0813 -1.68577
17.6945 2.19052 -2.09409
17.4948 3.02945 -1.67727
17.5747 2.32028 -2.02413
17.3548 2.94339 -1.75683
17.3399 2.90747 -1.73439
18.2065 3.54529 -1.10979
17.3269 2.88892 -1.70468
17.7255 3.24954 -1.38928
17.7045 3.23355 -1.34413
17.8523 3.34619 -1.25134
18.202 3.50186 -1.05753
17.1937 2.6937 -1.74822
18.0185 3.40283 -1.12318
17.5499 3.09659 -1.38776
17.6787 3.21243 -1.28739
18.181 3.46512 -0.99157
17.1877 2.66177 -1.72786
17.6616 3.19073 -1.24197
17.5144 3.07822 -1.33509
17.9343 3.41003 -1.02155
18.1331 3.46326 -0.929302
17.1761 2.60168 -1.65591
17.8044 3.26065 -1.09945
17.284 2.76682 -1.52132
17.9176 3.38989 -0.978794
17.7907 3.24567 -1.06577
18.0971 3.43222 -0.850693
17.1604 2.5571 -1.59155
17.3613 2.89059 -1.34899
17.6353 3.11191 -1.12691
17.153 2.53528 -1.56073
17.7782 3.20084 -1.00319
17.9062 3.32471 -0.895557
17.737 3.19543 -0.942547
17.8696 3.28308 -0.804417
18.0454 3.35788 -0.705837
17.3324 2.79361 -1.19752
18.0466 3.31815 -0.664654
17.3279 2.7551 -1.17266
17.6965 3.15118 -0.843437
18.0657 3.26007 -0.626129
17.2018 2.58932 -1.20641
17.5567 2.97849 -0.886051
17.854 3.18246 -0.678654
17.5756 2.93561 -0.869377
17.4021 2.84561 -0.938816
17.8537 3.14224 -0.636021
18.5497 2.93811 -0.456837
17.3963 2.7977 -0.896255
18.0058 3.20447 -0.491131
18.6566 2.81088 -0.446632
18.1404 3.02399 -0.465767
17.413 2.72443 -0.849163
18.1968 2.94559 -0.452187
17.3631 2.7641 -0.817406
17.5062 2.87268 -0.712093
18.4927 2.57227 -0.421421
17.6376 2.91187 -0.520775
17.8234 2.65613 -0.506573
18.2014 2.51407 -0.426254
17.5111 2.74384 -0.545746
17.3826 2.54675 -0.636211
17.3564 2.54642 -0.599319
17.5656 2.56866 -0.492287
17.3594 2.51151 -0.570141
17.8307 2.52029 -0.377968
17.8067 2.20712 -0.462849
17.6657 2.35666 -0.418987
18.3757 1.38205 -0.50972
17.5128 2.95511 -0.992363
17.9229 1.72101 -0.760933
17.4073 2.7027 -0.713707
18.4177 3.61084 -1.29239
17.42 2.80692 -0.841946
17.7278 1.82193 -1.7656
18.5535 3.37158 -2.00756
18.2437 3.56332 -1.85685
18.4895 3.57016 -1.73456
17.8995 3.49545 -1.77888
17.8929 3.48209 -1.75619
18.1093 3.53799 -1.67139
17.6032 3.14859 -1.85859
17.5514 3.14981 -1.80138
17.8467 3.38229 -1.59092
17.6971 3.25864 -1.6819
17.5327 3.13797 -1.75993
18.4 3.60751 -1.26937
17.6984 3.22684 -1.64858
17.5125 3.12518 -1.70657
17.6725 3.20682 -1.59475
17.6761 2.39624 -2.03275
18.0726 3.52408 -1.21209
17.2873 2.75421 -1.85191
17.6579 3.13895 -1.50299
17.4256 2.31561 -2.04572
18.3337 3.5101 -1.08506
17.6476 3.10892 -1.4572
17.384 2.31891 -1.98874
17.3749 2.86459 -1.66466
17.4914 2.99084 -1.5492
17.8811 3.349 -1.19345
18.2453 3.5159 -0.995293
17.3369 2.30658 -1.94688
17.3338 2.30051 -1.89791
17.5658 3.12222 -1.36492
17.2749 2.62762 -1.70619
18.228 3.45541 -0.906349
17.3367 2.24445 -1.84658
17.2331 2.58252 -1.60243
17.3994 2.93094 -1.35403
17.2747 2.74783 -1.44277
17.1962 2.5416 -1.50974
17.5018 2.9902 -1.15339
17.6206 3.14569 -1.0564
17.7886 3.23444 -0.956455
18.1456 3.40317 -0.755295
17.6058 3.14233 -1.03471
17.5887 3.13895 -1.01012
17.1958 2.49039 -1.45765
17.2376 2.71149 -1.32159
17.2009 2.45425 -1.44803
17.5872 3.09262 -0.957397
18.1366 3.33789 -0.669403
18.338 3.39124 -0.545811
17.5559 3.08444 -0.910244
17.2908 2.30325 -1.39629
17.4544 2.92682 -1.01434
18.1524 3.27069 -0.608437
18.4865 3.23853 -0.521969
17.3538 2.19727 -1.40482
17.7286 3.13919 -0.778957
18.0802 3.31046 -0.575222
17.5618 3.03323 -0.861195
17.2986 2.77026 -1.05359
17.4381 2.84698 -0.941025
18.1744 3.17676 -0.522644
17.3108 2.72021 -1.01686
17.2407 2.5029 -1.14439
17.4645 2.80136 -0.891991
17.2613 2.46811 -1.10309
17.4244 2.82114 -0.862804
18.5161 2.81528 -0.476192
17.4399 2.76617 -0.823158
18.0662 2.91345 -0.507095
17.495 2.92621 -0.661781
17.9662 2.9837 -0.473431
18.3093 2.93225 -0.384674
17.4387 2.71106 -0.762325
18.1798 2.7565 -0.456432
17.7104 2.91269 -0.502396
18.3016 2.62637 -0.445797
18.4289 2.49048 -0.434864
17.3176 2.474 -0.766846
17.4339 2.57718 -0.612003
18.0944 2.45407 -0.439259
17.7395 1.93942 -0.752472
17.4721 2.457 -0.530621
17.514 2.10172 -1.0382
17.4694 2.87125 -0.847614
17.4146 2.6424 -0.685562
17.161 2.59842 -1.39628
18.5683 3.30316 -2.10035
18.5367 3.30478 -2.06964
18.5179 3.29712 -2.04155
18.4443 3.56778 -1.85962
18.3463 3.61166 -1.81335
18.1339 3.50986 -1.88714
18.2843 3.63138 -1.7748
18.2394 3.62094 -1.7184
18.2533 3.58627 -1.69232
17.8724 3.39142 -1.88065
18.4038 3.62616 -1.48256
18.3536 3.60349 -1.40833
17.7892 3.30304 -1.69104
18.203 3.58951 -1.24848
17.4267 3.00485 -1.7547
17.5836 3.11172 -1.6502
17.7381 3.21231 -1.53265
17.5696 3.07703 -1.59543
17.4766 2.41443 -2.01128
17.2605 2.82306 -1.76337
17.6434 3.20926 -1.42649
17.252 2.5705 -1.89471
17.2492 2.81342 -1.73899
17.5338 3.01166 -1.48135
17.7752 3.26389 -1.23259
18.3698 3.52328 -0.926853
17.2187 2.50342 -1.78031
17.2215 2.44156 -1.71721
17.4264 2.95889 -1.30034
17.5715 3.08231 -1.20292
17.2642 2.36685 -1.69096
17.2119 2.65866 -1.52438
17.3012 2.31229 -1.67905
17.3025 2.78107 -1.36034
17.6905 3.1633 -1.0267
17.5715 2.02802 -1.71521
17.7278 1.84457 -1.71549
17.5269 2.98074 -1.03735
17.9136 1.6322 -1.72186
18.0498 1.48663 -1.74405
18.169 1.3533 -1.74467
17.6949 3.0148 -0.857174
17.2636 2.64661 -1.16458
17.5065 2.91519 -0.939293
17.3706 2.77417 -1.0274
17.4943 2.89694 -0.904709
17.3615 2.72607 -0.96228
18.8329 2.81335 -0.48777
17.4076 2.17435 -1.23237
17.5975 2.98145 -0.714928
18.1461 3.03372 -0.525536
17.3303 2.47284 -1.04892
17.3445 2.69342 -0.905685
17.477 2.82675 -0.804249
18.0996 3.04706 -0.496185
17.3006 2.46204 -1.00174
17.3403 2.6405 -0.840408
17.483 2.76779 -0.742329
17.802 2.98184 -0.52636
18.4934 2.71097 -0.47123
18.6734 2.56186 -0.465244
17.8304 1.66266 -1.18666
17.328 2.62234 -0.80563
17.9197 2.85635 -0.495186
17.7754 2.67719 -0.542938
18.3282 2.4917 -0.472618
17.7225 2.70004 -0.513836
17.7322 1.91873 -0.902245
17.3267 2.53 -0.698326
17.4557 2.66031 -0.586761
17.877 1.73856 -0.899612
17.3794 2.44672 -0.663185
17.5853 2.49814 -0.54031
17.4935 2.31024 -0.63718
17.8426 2.22134 -0.500454
17.7144 2.29227 -0.441612
17.9375 1.80847 -0.59557
18.0541 1.69388 -0.570583
17.4867 2.96899 -1.54641
18.5615 3.26556 -2.07369
18.5737 3.22015 -2.03226
18.6578 3.15591 -2.03291
17.9279 3.45889 -1.73352
17.5227 3.05444 -1.68082
17.8334 3.29431 -1.45658
17.4986 2.33563 -2.08549
17.2291 2.71744 -1.79908
17.3805 2.34192 -1.95978
17.3618 2.33704 -1.93322
17.3291 2.33093 -1.88956
17.5296 3.05783 -1.29361
17.3177 2.27185 -1.81041
17.4344 2.1655 -1.8222
17.3785 2.88547 -1.34185
17.2746 2.70865 -1.43201
17.689 1.88181 -1.78937
17.4976 2.95294 -1.13885
17.2365 2.37744 -1.41971
18.0689 1.45218 -1.73259
18.1001 1.40829 -1.71824
18.1413 1.35391 -1.70312
17.398 2.16135 -1.34698
17.3141 2.64841 -0.99823
17.395 2.82349 -0.885529
17.2494 2.4679 -1.12584
17.5332 2.00006 -1.30847
17.5819 1.94385 -1.29671
17.2681 2.41858 -1.08773
17.6414 1.87903 -1.28685
17.3116 2.36874 -1.07493
17.3216 2.59073 -0.937317
17.6969 1.8147 -1.27298
17.3928 2.71017 -0.746662
17.424 2.6532 -0.707855
17.3304 2.45609 -0.785393
17.6313 2.64914 -0.491627
17.4509 2.48993 -0.534843
17.5625 2.37558 -0.503994
17.8095 1.93515 -0.645523
18.1328 1.59039 -0.558029
18.2673 1.47125 -0.551075
17.3681 2.91681 -1.87123
17.2395 2.69156 -1.89739
17.1893 2.68417 -1.84206
17.361 2.31464 -1.9952
17.3068 2.28763 -1.91086
17.159 2.58957 -1.70412
17.269 2.74936 -1.5882
17.1698 2.53751 -1.65373
17.5432 2.04248 -1.86067
17.6082 1.96182 -1.83142
17.1938 2.39224 -1.50656
17.2497 2.32077 -1.47537
17.2041 2.49622 -1.23019
17.2343 2.44949 -1.20171
17.4673 2.05054 -1.36282
17.4419 2.16373 -1.04715
17.6743 1.92365 -0.969131
