1.53427 -4.85651 -1.79998
-0.159241 -6.06454 -2.04375
0.733551 -5.61075 -1.45747
0.0981903 -5.89175 -2.0742
0.74733 -5.2533 -2.34087
-1.50409 -7.4642 -2.2036
-1.16924 -7.03348 -2.40076
1.25716 -6.86337 -2.14355
-0.460312 -6.42865 -1.76741
0.559036 -5.51303 -1.7125
0.748444 -5.3605 -1.77364
-0.507813 -6.68454 -1.4313
0.547836 -5.49554 -1.7867
0.0235901 -6.56995 -1.22887
0.642609 -5.35361 -2.05077
0.128021 -5.84573 -2.24881
1.78593 -4.60373 -2.24957
1.82863 -4.56802 -2.05416
-0.489624 -6.3439 -2.17797
-0.690521 -6.58075 -1.74894
-0.853531 -7.5632 -1.29512
-0.564041 -8.09006 -1.47453
0.0132904 -6.51443 -1.18738
-0.200089 -6.22119 -1.5895
-0.807938 -6.71582 -2.22505
-0.0478821 -7.61328 -1.28405
0.080246 -5.91895 -1.6979
-1.33882 -7.8382 -2.23801
-0.321945 -7.21555 -1.63638
0.222443 -5.71689 -2.10944
0.030304 -6.21368 -1.45052
0.229141 -5.80426 -1.80394
-0.00698853 -5.95639 -1.84808
-0.759125 -6.69574 -1.7864
0.753876 -5.29047 -1.83598
1.96455 -4.68607 -2.02386
1.90619 -4.56339 -2.32653
0.488022 -5.51077 -1.94893
1.01775 -6.9462 -1.97499
0.29744 -5.66226 -2.38804
2.30678 -4.9393 -1.94154
0.540024 -6.65189 -1.24023
1.66078 -4.70859 -1.853
1.44453 -4.70633 -2.04559
-0.960678 -6.77554 -1.95469
0.0535126 -6.02246 -1.65349
-1.28911 -7.24274 -2.42087
-0.0770721 -6.70453 -1.20676
1.23685 -4.91666 -1.80398
0.766464 -7.38058 -1.85379
-1.00522 -6.90421 -1.85059
1.83511 -4.56082 -2.07322
0.844955 -5.37241 -1.60786
0.23085 -5.7019 -2.15268
-1.03105 -8.04181 -1.64098
1.42151 -4.85327 -1.89207
1.95399 -4.58878 -2.33501
2.01083 -5.25867 -1.76307
0.980225 -5.1051 -2.01085
2.13492 -4.67365 -2.30914
1.48314 -4.69757 -2.0766
1.24393 -4.80414 -2.40131
-0.220871 -6.30557 -1.60182
-0.0323334 -5.90298 -2.16826
1.24326 -6.89243 -2.09421
0.135681 -5.84952 -1.87613
1.24669 -5.01056 -1.75178
1.47794 -4.70023 -2.33654
0.537415 -5.45563 -2.08864
2.64113 -5.19171 -2.19041
-1.02757 -6.99588 -1.76468
1.41316 -4.65652 -2.01036
0.077713 -5.89166 -2.02748
1.27077 -5.13745 -1.72151
2.13167 -4.96188 -1.84383
0.948318 -5.14478 -1.94148
-0.761505 -6.60126 -2.34587
-0.146545 -6.01883 -1.99261
0.390518 -6.72906 -1.23754
0.895782 -5.19928 -2.42331
0.858368 -5.3118 -1.66862
0.600845 -5.37808 -2.24892
0.404083 -5.66617 -1.68861
1.09273 -6.49057 -1.32531
1.97601 -4.71622 -1.94777
0.490524 -6.14941 -1.24844
0.0866547 -6.29337 -1.58564
0.495514 -6.62311 -1.23548
-0.224686 -7.97067 -1.31671
-1.0499 -6.90756 -1.94587
0.539856 -7.53772 -2.10244
1.27359 -4.84903 -1.87575
-0.972565 -6.79401 -1.97203
0.0514679 -6.44876 -1.16878
0.709763 -5.26303 -1.94169
0.862091 -5.29034 -1.77432
0.223846 -6.16238 -1.29808
0.140213 -6.12436 -1.43544
1.01407 -6.89291 -2.07187
1.20805 -5.34506 -2.13403
-1.30377 -7.62656 -1.75433
-0.382156 -7.63391 -1.28764
-1.18385 -7.89395 -1.83524
2.13243 -4.68768 -2.2926
-1.13277 -7.13437 -1.61765
0.887878 -6.49466 -1.2843
0.361389 -6.08249 -1.33032
0.664993 -6.16605 -1.26072
-0.937057 -8.2034 -2.19987
1.05458 -4.96182 -2.42986
1.62689 -4.85513 -2.38518
0.60878 -5.64896 -1.41523
-0.786682 -7.21121 -1.24267
1.9485 -6.1041 -1.75362
-0.778015 -7.37518 -1.25632
-0.293472 -8.21609 -1.6497
-0.69577 -7.00046 -1.30136
-0.588745 -6.50998 -1.74046
0.937668 -6.97379 -1.85154
2.12692 -4.65878 -2.0341
-0.434433 -6.9332 -1.59733
-1.0255 -7.50433 -1.35873
-0.347412 -7.78757 -1.30898
0.947235 -5.17337 -1.76669
1.20422 -4.86624 -2.30347
0.301865 -5.66888 -1.76542
-0.390549 -6.91351 -1.19196
1.42564 -4.73672 -2.30337
-0.944962 -6.76718 -2.24425
-0.470154 -7.40726 -1.25172
-0.517334 -7.05142 -1.25377
1.59715 -4.62732 -2.06765
1.05338 -5.09064 -1.88017
1.34109 -5.1384 -1.68344
-0.613464 -6.69946 -1.59985
1.98824 -4.77505 -1.95822
-0.273407 -8.16684 -1.61739
0.131363 -6.30823 -1.31475
-0.574158 -7.8912 -1.32835
0.686142 -6.76544 -1.80214
-0.33699 -6.79968 -1.22989
1.90448 -4.63647 -2.1667
-0.321579 -6.20139 -2.23391
1.03337 -5.04016 -2.1853
-1.06145 -6.97076 -1.8583
0.324127 -6.4155 -1.21895
-0.824982 -6.6666 -2.21159
-1.04158 -6.81918 -2.15148
1.23854 -4.79584 -2.54825
1.52992 -4.67941 -1.78191
0.356216 -5.64767 -1.75698
-0.171173 -6.10815 -1.96976
1.1433 -4.93115 -1.92465
0.541809 -7.18149 -1.27666
1.15797 -4.91156 -2.23638
-0.255997 -7.88562 -1.32748
-0.260666 -6.79346 -1.19275
0.810898 -5.20514 -2.19277
0.740936 -5.26694 -1.99123
0.694077 -5.34351 -1.58673
1.13136 -4.92975 -2.31992
1.28989 -4.7879 -2.3498
0.416916 -5.5723 -1.78703
-1.37386 -7.54602 -1.85204
-0.455276 -6.40665 -1.79201
0.320572 -5.80481 -1.7263
1.7186 -4.63385 -2.07755
0.56221 -6.22397 -1.25703
-0.798767 -6.59677 -2.53585
-0.331421 -8.14639 -1.58717
0.5336 -5.4931 -2.3933
0.00845337 -7.29965 -1.832
1.11331 -5.02426 -1.81163
1.70126 -4.63556 -2.03843
1.18483 -6.94501 -2.03003
-1.04904 -8.20667 -2.18097
-0.578644 -6.4205 -1.7964
1.0312 -5.34174 -2.3051
0.415253 -7.40656 -1.2438
0.0529327 -5.89999 -1.99689
2.09468 -4.65854 -2.29483
0.474045 -6.45587 -1.21434
1.65639 -4.61517 -1.99411
1.43797 -4.68381 -2.25474
0.801971 -5.2345 -1.98071
0.211639 -5.75983 -2.10205
-1.48398 -7.48145 -2.28101
0.799957 -5.25333 -1.84858
0.604385 -6.88657 -1.26162
0.687912 -6.70676 -1.83504
0.693192 -5.3035 -2.33797
-0.695084 -7.04349 -1.29636
0.419662 -5.68533 -1.71015
0.502426 -5.45715 -2.30261
-0.516678 -6.36606 -2.30329
0.523087 -6.42227 -1.23837
1.38965 -4.77856 -1.87044
-1.33598 -7.54007 -1.65938
0.340607 -5.62106 -1.87842
-0.585388 -6.49384 -2.39514
-0.0765991 -6.02914 -1.84209
-1.24409 -7.05875 -2.28035
-1.44102 -7.30679 -2.19647
-0.0596771 -6.06827 -1.70096
-1.16219 -7.00101 -2.08596
-1.22685 -7.74722 -1.69968
1.1494 -4.91617 -2.36602
0.0485229 -7.33847 -1.90278
-0.0434723 -5.95602 -2.38312
1.75758 -6.45718 -1.73992
-0.768707 -6.58423 -2.59887
1.09128 -4.91452 -2.54659
-0.895767 -6.71893 -2.33956
1.54677 -6.59622 -1.5973
0.0370178 -5.90137 -1.90495
0.87326 -5.20755 -2.13976
-1.35075 -7.21463 -2.19131
0.50737 -5.47867 -2.00221
0.301376 -5.80927 -1.65618
-0.894852 -7.16791 -1.3396
-0.314224 -6.89273 -1.19679
0.321701 -7.24167 -1.26832
1.3674 -6.87006 -1.89259
-0.198044 -6.10959 -2.24907
1.33859 -4.7691 -2.10094
1.63142 -4.63971 -2.10567
-0.0736847 -5.99472 -1.88004
0.975571 -5.04227 -2.39168
1.39377 -4.82031 -1.81812
0.47084 -6.27478 -1.25597
0.347336 -6.87637 -1.23172
0.329376 -5.69611 -1.7885
2.0369 -4.59442 -2.16684
-1.28432 -7.77335 -1.86092
-0.189224 -6.74649 -1.23837
-1.14084 -6.96564 -2.00777
-0.787292 -7.2536 -1.24346
2.16699 -5.43951 -1.79834
-1.08894 -8.01016 -2.07341
0.937683 -6.72379 -1.28186
0.0974579 -5.76907 -2.15016
-0.796844 -7.28217 -1.22417
0.784363 -5.29147 -2.09485
0.147247 -5.95438 -1.64063
-0.737549 -7.70633 -1.29912
0.622574 -6.11804 -1.25866
-0.694412 -6.58658 -1.78311
0.103989 -5.81973 -1.94268
0.0952301 -5.8248 -1.80473
0.234406 -6.82788 -1.21885
1.76262 -4.60092 -2.08363
1.50752 -6.72552 -1.85765
-1.11058 -7.26181 -1.50147
1.36549 -6.88675 -1.97595
1.47395 -5.59012 -1.72763
-1.3163 -7.56808 -1.80515
-0.00184631 -5.96411 -1.79102
0.542709 -7.54642 -2.04929
-0.216507 -6.65524 -1.27449
-1.40678 -7.75412 -2.25951
-0.0569 -5.95712 -2.35083
-0.516922 -8.25549 -1.57034
1.15855 -5.15146 -1.75231
1.81721 -6.41473 -1.72836
0.509903 -7.61649 -2.00052
0.334991 -6.138 -1.352
-0.25145 -6.25165 -1.73175
-0.255508 -7.43643 -1.26355
1.28957 -4.83316 -2.31076
-0.254807 -7.06787 -1.7129
-0.0197296 -5.93832 -2.14175
-0.721848 -8.35306 -1.81868
1.57326 -5.02164 -2.14306
0.600418 -5.48538 -2.3288
0.312363 -5.69626 -2.43834
-0.633621 -7.18756 -1.24024
0.661301 -6.76431 -1.75163
0.0939178 -6.29843 -1.2677
-0.82019 -6.63245 -2.43153
0.0496979 -6.00467 -1.687
-0.792145 -6.82071 -1.62029
1.3965 -4.70786 -1.9893
0.394135 -6.78784 -1.23957
0.0992889 -5.80643 -2.19522
-0.986633 -6.75549 -2.49506
-0.0684662 -5.89682 -1.98405
-0.169113 -6.17203 -1.65506
1.66127 -4.5668 -2.34313
0.605072 -5.43939 -1.85574
1.58261 -4.91177 -2.15186
0.239883 -5.82117 -2.45853
0.518158 -5.55408 -1.72412
1.3324 -4.74057 -2.32496
-0.61821 -6.95313 -1.32645
-0.428055 -6.32254 -2.21234
1.40266 -6.81381 -2.09287
0.458557 -6.26224 -1.23783
2.60968 -5.20029 -2.13029
0.570526 -5.35049 -1.54887
0.817261 -5.74182 -1.41272
-0.3284 -6.83759 -1.22422
0.816956 -5.4321 -1.57422
1.05803 -5.01486 -1.84467
0.487991 -5.58255 -2.0406
2.46547 -4.94672 -2.28766
1.26785 -6.88144 -2.15022
-0.211761 -6.14825 -1.88749
1.74828 -4.56784 -2.20321
0.247375 -5.70465 -2.24743
1.40396 -4.94067 -1.78873
0.999847 -5.34781 -1.63506
2.2719 -5.36826 -1.81382
0.985611 -4.97702 -2.461
-0.0511322 -5.98935 -1.77995
-1.19572 -7.13638 -1.77709
0.108109 -5.82996 -1.82901
0.88121 -5.1272 -2.0966
-0.99086 -6.7742 -2.44584
0.727692 -7.2247 -1.26477
1.45529 -6.78842 -1.88379
0.918655 -5.11084 -2.03577
1.53943 -6.58627 -1.53179
1.43451 -5.63864 -1.67514
1.39005 -4.87979 -1.81291
1.30702 -4.75861 -2.29697
0.980988 -5.1683 -2.20222
0.793747 -5.241 -2.24155
1.73766 -4.59613 -2.14999
-0.275391 -7.07224 -1.66877
0.295059 -6.14835 -1.27589
1.48013 -4.70609 -1.93428
-0.505157 -6.54834 -1.64433
0.322098 -5.82758 -1.65128
1.34608 -4.93311 -2.04608
0.19751 -5.87695 -1.66793
0.0506439 -5.83029 -2.32995
2.37466 -4.92062 -2.09981
0.836639 -7.12726 -1.27452
1.24068 -4.83646 -2.20303
1.4332 -4.62747 -2.19144
2.53438 -5.02399 -2.39736
0.731522 -5.26398 -2.29705
1.55592 -4.61868 -2.29906
0.99321 -5.0166 -2.39815
0.243973 -5.69699 -2.0391
0.693588 -5.31894 -2.37935
0.280838 -7.00131 -1.25972
1.34227 -4.80045 -2.08092
1.68182 -4.72571 -1.84215
0.833008 -5.17041 -2.25076
1.08371 -4.98154 -2.28537
0.375885 -5.63693 -1.79979
0.974106 -5.33463 -1.6076
0.340073 -6.16479 -1.23935
-0.0461273 -5.96649 -1.80791
0.999832 -5.02164 -2.11138
0.0873566 -6.31778 -1.56312
0.590607 -6.75452 -1.24618
1.87019 -6.15353 -1.77937
0.967117 -5.32425 -1.66695
0.059494 -7.36737 -1.26019
-0.556412 -7.75693 -1.3116
-0.602371 -6.4151 -2.00349
-1.46484 -7.37607 -2.15904
1.15561 -4.91061 -1.85227
-1.17662 -7.01117 -2.06256
-0.495544 -6.79086 -1.32914
0.0988922 -6.90292 -1.23137
-1.09718 -6.87637 -2.50755
-0.694214 -8.1033 -1.51081
-0.301147 -6.23895 -2.27005
2.1642 -4.67316 -2.3717
0.951996 -6.99066 -1.83212
0.561157 -5.32788 -1.56227
0.631287 -6.82785 -1.65793
0.169632 -6.22495 -1.43384
-0.757462 -6.6087 -2.40629
0.984604 -6.9924 -1.88773
1.18922 -4.89609 -2.34195
0.740738 -5.51312 -2.51163
2.20514 -4.70535 -2.39181
-0.582428 -6.44128 -2.2215
0.343353 -5.61227 -2.30202
0.542542 -5.61606 -1.68504
1.64235 -4.60501 -2.33525
1.00156 -5.29205 -1.6435
1.55006 -4.95477 -2.0761
0.1185 -7.68448 -1.26283
0.48378 -7.05862 -1.25682
1.17596 -5.37445 -2.26894
-0.721725 -6.58704 -1.93758
1.34373 -4.75201 -2.13916
0.53006 -7.64224 -1.89519
1.14862 -5.38498 -2.20819
1.11052 -5.10922 -1.71941
0.706741 -5.60843 -1.45479
0.819458 -6.67676 -1.26968
0.00553894 -5.90335 -2.24597
0.877121 -5.38205 -1.6392
1.53798 -6.56656 -1.50587
1.73811 -4.62985 -2.01928
0.579437 -6.4053 -1.2326
-0.673309 -8.41769 -2.08846
1.93584 -4.53043 -2.34235
-0.151001 -6.10818 -1.74271
-1.20668 -7.31931 -1.55385
-0.433578 -6.2402 -2.28651
-0.753113 -6.57327 -1.95198
1.30588 -4.71982 -2.35839
0.690292 -7.49728 -1.94298
0.590424 -5.30887 -1.63544
0.237473 -6.35617 -1.20483
1.55391 -4.66058 -1.99929
1.8674 -4.56339 -2.15148
-0.877579 -6.83813 -1.74518
1.77361 -6.11307 -1.72193
0.472412 -6.05695 -1.27909
0.968536 -5.07153 -2.16391
0.828659 -5.49609 -1.54107
-0.515518 -6.42484 -1.76672
1.93636 -4.7659 -1.85062
-0.10997 -7.37772 -1.25455
-0.502792 -6.98886 -1.24581
1.07126 -5.15955 -1.73333
-0.00968933 -6.36935 -1.29325
-0.61792 -7.20645 -1.21429
1.23439 -5.00412 -2.00167
0.42041 -5.5983 -1.91072
-1.0188 -7.22729 -1.41232
-0.551712 -6.40884 -2.05511
-0.989792 -6.85507 -2.33401
-0.622574 -6.68573 -1.62186
-0.889923 -6.69772 -1.8905
-1.37317 -7.6774 -2.12447
1.06664 -4.97333 -2.33039
1.79837 -4.59628 -2.30202
2.34727 -4.87802 -2.06429
-0.539627 -6.37296 -2.24389
0.890762 -5.35223 -1.72733
-0.694687 -7.01486 -1.32751
-1.29947 -7.58463 -1.65798
2.20897 -4.78741 -2.05226
0.389236 -7.21552 -1.25841
-0.0751801 -6.03375 -2.26987
-1.06792 -6.97284 -2.43512
-1.21391 -7.03406 -2.33915
-0.0960846 -7.34549 -1.60603
1.27072 -4.77829 -2.44051
1.53056 -4.74191 -1.85422
2.62581 -5.22723 -2.10665
0.722183 -7.50552 -1.96853
-1.4834 -7.39944 -2.05441
0.716324 -6.7182 -1.88402
-0.0184479 -7.38477 -1.73577
0.0777893 -7.20258 -1.24932
0.36142 -7.58228 -1.9847
1.41936 -4.88809 -1.79013
-0.365524 -6.75186 -1.28577
0.733398 -7.45532 -1.9599
-0.155777 -6.7963 -1.23243
0.750015 -5.61441 -1.5329
-0.649673 -8.41141 -1.8306
-0.698013 -6.60706 -1.71723
1.26787 -4.78076 -2.16341
2.3382 -4.91486 -2.00513
1.57425 -4.65198 -2.38371
1.10789 -4.9642 -2.09272
2.35123 -4.90378 -2.0394
-1.08513 -6.87064 -1.95151
0.358276 -5.77359 -2.47296
1.88338 -4.59866 -2.20511
2.08058 -4.9071 -1.84951
1.33603 -4.74411 -2.18303
1.50142 -4.66519 -2.24827
-0.155746 -7.90283 -1.30131
1.52359 -4.73615 -1.89396
1.35196 -4.71481 -2.24125
0.847656 -5.19247 -2.39423
1.58315 -4.91217 -1.78345
-1.46826 -7.62106 -2.15921
1.14609 -5.21338 -2.07775
-0.0283356 -5.94684 -1.99854
-1.46867 -7.45242 -2.01337
0.167297 -5.76099 -1.98341
-1.38539 -7.29993 -2.34081
-0.366776 -6.31116 -1.75021
1.46358 -4.74222 -1.87225
1.15424 -4.93246 -2.35898
1.61522 -6.65915 -1.92271
-1.38921 -7.543 -1.82773
2.16341 -4.70905 -2.08992
0.753311 -5.30209 -2.04369
0.0428009 -6.05759 -1.6361
0.251022 -7.37698 -1.28022
-0.118027 -6.09946 -1.78318
0.831482 -5.26178 -2.41772
0.460007 -6.85571 -1.24719
2.28206 -4.75803 -2.17928
-1.06195 -6.76889 -2.56144
-0.504974 -6.37589 -2.0033
-0.886124 -6.93704 -1.6298
-0.0070343 -6.0253 -1.70595
0.304657 -6.21533 -1.25058
-1.49149 -7.51855 -2.19507
0.960129 -5.21561 -1.75117
0.362076 -5.60919 -2.23392
1.21634 -4.84708 -2.01307
1.71071 -6.54895 -1.56955
0.612915 -5.28638 -2.0181
-0.955948 -7.18933 -1.51527
-0.858688 -6.7099 -2.14551
-0.0875244 -7.29669 -1.64057
0.736038 -5.34976 -1.65405
0.703552 -5.33643 -2.27044
2.07985 -5.4639 -1.76875
-0.216141 -6.05719 -2.21965
1.5728 -4.81815 -2.24073
-1.34605 -7.2128 -1.95399
0.86174 -5.26688 -2.4384
-0.231262 -6.29306 -1.59687
0.806549 -5.22336 -1.9522
1.42348 -4.72403 -1.95876
1.79469 -4.55536 -2.33753
0.231094 -5.7937 -1.66758
0.564667 -5.41748 -1.83331
-0.742325 -6.57211 -2.21456
1.71843 -6.02069 -1.71926
-0.339142 -6.88898 -1.17904
-0.795807 -7.54321 -1.29519
-0.503815 -6.8129 -1.29618
1.114 -4.96567 -2.12968
1.93851 -4.71014 -1.90967
0.644791 -5.457 -1.73701
0.0957794 -5.95303 -1.72868
1.03041 -5.32843 -2.33318
-0.854874 -6.6951 -1.93509
1.15706 -5.09512 -2.01471
0.128601 -7.00775 -1.235
0.415314 -7.69791 -1.7721
1.12341 -5.06537 -2.00646
0.324219 -7.28564 -1.27574
0.268677 -6.98801 -1.24097
1.18446 -4.8858 -2.18351
1.3457 -4.85748 -2.05501
0.0391083 -5.93231 -1.88892
1.53764 -6.64581 -1.49081
1.13322 -5.10675 -1.75036
-0.793777 -8.33319 -2.18761
1.52975 -6.61487 -1.49155
0.834351 -5.18628 -2.08443
-0.903748 -6.68448 -2.64083
-0.139694 -6.09125 -2.39705
-0.908035 -6.69888 -2.59276
-1.07724 -7.14398 -1.60385
0.990082 -5.04593 -2.35215
-1.38463 -7.59793 -1.94514
0.0470428 -5.86792 -2.34688
1.467 -6.79193 -1.95234
0.118134 -7.78372 -1.70813
0.315659 -7.64017 -1.96388
-0.865906 -6.8782 -1.71355
0.415268 -5.69766 -1.68257
-0.799881 -8.42358 -2.23364
-0.413712 -6.32922 -1.76839
0.641907 -5.4024 -1.79353
-0.0190735 -6.38055 -1.2701
0.416992 -5.59192 -1.77267
1.31259 -4.8262 -2.0663
-1.04877 -6.84702 -2.34644
-0.705795 -8.39349 -2.13397
0.788773 -5.24088 -2.13726
0.54921 -5.73471 -1.33912
0.613602 -5.80103 -1.44677
0.894821 -5.15118 -2.12394
1.00859 -5.25616 -1.69181
2.42728 -4.8804 -2.19555
2.42552 -4.9071 -2.18269
2.4127 -4.89835 -2.15474
2.60495 -5.09866 -2.15543
0.438858 -5.67789 -1.61398
-0.0764465 -6.50174 -1.31113
0.785934 -6.02841 -1.31438
1.21655 -4.97 -1.76185
2.24059 -4.7392 -2.12915
0.412125 -5.97141 -1.30447
-1.00012 -7.18301 -1.47578
1.52213 -6.69254 -1.90049
1.89433 -4.77744 -2.49083
1.19751 -4.87793 -2.21374
2.12093 -4.66144 -2.01899
0.535645 -5.46317 -2.23758
-1.272 -7.11304 -2.1883
0.880539 -6.92743 -1.28304
2.21678 -5.49933 -1.80732
2.1835 -4.77737 -2.46224
2.10258 -4.61765 -2.3503
2.29755 -4.75189 -2.38093
1.79254 -4.52692 -2.33882
2.10376 -4.64273 -2.33905
2.28401 -4.76126 -2.34285
1.92087 -4.55515 -2.29068
1.77943 -4.55515 -2.29047
1.91335 -4.56317 -2.30037
1.94263 -4.60431 -2.29852
1.78627 -4.57648 -2.24574
2.2021 -4.67679 -2.19799
2.49039 -4.98343 -2.32172
2.05357 -4.62369 -2.19997
2.40163 -4.86319 -2.1941
2.18788 -4.69708 -2.12692
1.99028 -4.59622 -2.08784
2.36122 -4.86755 -2.10119
1.6967 -4.55759 -2.07642
1.95378 -4.55655 -2.02176
1.68956 -4.60623 -2.08689
2.10661 -4.65198 -1.99174
2.62993 -5.16641 -2.15274
1.97702 -4.66187 -2.00818
1.68069 -4.60724 -2.00098
1.8298 -4.65826 -2.00056
2.12723 -4.75629 -1.98224
2.10982 -4.75912 -1.94202
1.80528 -4.65948 -1.99808
1.99721 -4.79108 -2.00636
2.14946 -4.80374 -1.94687
2.61673 -5.24121 -2.07911
2.63319 -5.29401 -2.08184
1.95792 -4.74567 -1.93841
2.62065 -5.28519 -2.06086
1.68942 -4.64682 -1.9889
1.6655 -4.66287 -1.95284
2.09103 -4.771 -1.89428
2.59677 -5.30698 -1.99819
1.65245 -4.70401 -1.89992
1.64037 -4.76047 -1.83682
1.75816 -6.00815 -1.72103
1.77504 -6.38681 -1.65142
1.77708 -6.45721 -1.63697
1.56949 -6.57169 -1.56582
1.51669 -6.60638 -1.45747
1.99893 -5.37744 -1.76215
-1.46011 -7.67252 -2.11796
-1.02708 -6.83987 -2.15774
-0.00190735 -5.90613 -1.94191
0.927078 -5.21982 -2.19816
0.0246429 -7.21667 -1.25158
-1.19847 -7.05319 -2.22989
0.361145 -6.99539 -1.25227
1.40952 -4.78125 -1.8806
-0.413101 -6.44516 -1.64021
1.88416 -4.61014 -2.14303
0.586166 -7.59708 -2.03175
1.82422 -4.57471 -2.3589
2.11435 -4.60992 -2.31761
1.68008 -4.5795 -2.35185
1.7989 -4.59769 -2.32928
2.14566 -4.66995 -2.33499
1.97426 -4.61472 -2.31518
1.14758 -4.85675 -2.596
1.33577 -4.71072 -2.44331
2.43866 -4.92337 -2.4019
1.13788 -4.84436 -2.54359
2.10202 -4.65521 -2.25468
1.23508 -4.8064 -2.49266
1.53989 -4.65015 -2.3008
1.13588 -4.90186 -2.54329
1.65128 -4.65411 -2.25581
2.28975 -4.76218 -2.23373
1.24136 -4.80688 -2.44645
1.77899 -4.59872 -2.20789
1.14227 -4.89505 -2.49514
1.51299 -4.62454 -2.253
1.45323 -4.77322 -2.34895
1.5347 -4.69415 -2.29948
2.23038 -4.71353 -2.15431
1.10318 -4.91623 -2.44565
1.54532 -4.65411 -2.24558
2.19186 -4.6958 -2.0918
1.20052 -4.85086 -2.38526
1.38637 -4.71521 -2.2925
1.00162 -4.99991 -2.4894
1.52473 -4.71213 -2.22239
1.60706 -4.62308 -2.13541
1.59616 -4.64743 -2.14205
1.10338 -4.91965 -2.39522
1.28714 -4.79517 -2.29198
1.08908 -4.94263 -2.39341
1.37869 -4.72574 -2.19423
1.50208 -4.70676 -2.17217
1.59348 -4.62256 -2.10308
2.02139 -4.69742 -2.05422
2.20816 -4.77188 -2.06308
2.54411 -5.04892 -2.17327
0.987274 -5.01324 -2.44282
1.48953 -4.66312 -2.13377
2.50896 -5.00571 -2.14586
1.28511 -4.80252 -2.23563
1.47707 -4.68378 -2.12822
1.55417 -4.64487 -2.04295
1.45586 -4.66782 -2.09537
2.54027 -5.10028 -2.12368
2.55399 -5.13312 -2.12296
2.51685 -5.09363 -2.08474
2.47691 -5.05698 -2.03899
1.05783 -4.97452 -2.29039
1.95294 -4.70584 -1.94583
1.2442 -4.84317 -2.14635
1.42924 -4.70636 -1.99322
1.82986 -4.7334 -1.93753
1.9644 -4.73792 -1.90817
1.0509 -4.99741 -2.24562
1.54033 -4.70428 -1.94196
2.15108 -4.83102 -1.90512
2.52533 -5.1778 -2.0327
1.23543 -4.80988 -2.09715
1.14812 -4.91904 -2.15234
1.22804 -4.85712 -2.1007
1.82263 -4.7742 -1.89363
1.12585 -4.94623 -2.14494
1.83679 -4.81265 -1.89552
1.34351 -4.89249 -2.04351
1.40291 -4.7457 -1.94203
2.51663 -5.23953 -1.96706
1.33139 -4.84595 -2.0103
0.946106 -5.10162 -2.24453
1.30621 -4.80521 -1.97473
0.944321 -5.14835 -2.25625
1.09151 -4.95816 -2.04383
1.39581 -4.8071 -1.84959
1.0914 -4.97916 -2.0203
1.08498 -5.00656 -2.01392
1.25194 -5.0864 -2.02113
1.50946 -4.83023 -1.79951
1.08929 -5.34344 -2.20016
1.27176 -4.85913 -1.86623
1.09761 -5.31241 -2.18799
1.24959 -4.87225 -1.86045
1.39386 -4.90967 -1.84206
1.07913 -5.043 -1.96163
1.04715 -5.0224 -1.93762
1.15747 -4.96436 -1.86226
1.25017 -4.95895 -1.80336
1.03979 -5.04446 -1.8956
1.27399 -5.00253 -1.78302
1.14285 -5.00687 -1.80404
1.27592 -5.03693 -1.78278
1.13898 -5.06247 -1.7994
1.28438 -5.0459 -1.74916
0.949356 -5.20844 -1.91265
1.022 -5.10983 -1.80912
1.14442 -5.18741 -1.73024
1.02739 -5.24283 -1.75475
0.886108 -5.35233 -1.68843
1.56339 -5.7897 -1.69188
0.856323 -5.3623 -1.6405
0.743149 -5.3952 -1.71123
0.740952 -5.36676 -1.70386
0.716476 -5.33377 -1.63844
1.88039 -6.34836 -1.70375
1.90088 -6.4014 -1.70513
0.836945 -5.40714 -1.59322
1.56287 -6.78198 -1.94873
0.845245 -5.44208 -1.58702
1.74576 -6.44763 -1.69731
1.52919 -6.7496 -1.89239
1.71848 -6.45663 -1.67409
1.39235 -6.86539 -1.94588
1.5038 -6.73755 -1.84546
1.68904 -6.47269 -1.6097
1.69838 -6.50601 -1.58995
1.3053 -6.69809 -1.46992
1.27074 -6.81198 -1.36608
1.05681 -6.78638 -1.31204
1.06068 -6.86377 -1.30373
-0.162979 -6.62662 -1.36882
0.803726 -5.2421 -2.38792
1.15121 -4.91602 -2.09687
0.503967 -5.84839 -1.31221
0.421768 -5.75424 -1.66512
-0.252884 -6.5741 -1.28594
-1.35182 -7.22345 -1.90651
-0.473007 -6.6572 -1.40458
0.938812 -6.9989 -1.79493
-0.793335 -7.86542 -1.32932
0.291611 -6.73364 -1.23022
0.747131 -5.25546 -2.09889
1.15445 -5.01285 -2.01007
-1.34648 -7.1825 -2.02228
1.79704 -4.58981 -2.37976
1.74954 -4.56741 -2.32909
1.32928 -4.73044 -2.48653
1.15231 -4.89359 -2.59798
1.30655 -4.72025 -2.44503
1.49985 -4.65567 -2.34734
1.65804 -4.64581 -2.32826
1.4942 -4.65494 -2.30648
1.74492 -4.60248 -2.24373
1.21431 -4.82864 -2.46403
1.40662 -4.72696 -2.34503
1.69202 -4.58514 -2.16138
1.08644 -4.94943 -2.49691
1.44504 -4.66843 -2.1385
1.44188 -4.70663 -2.13927
1.56395 -4.68347 -2.1125
1.63014 -4.59021 -2.04254
2.26912 -4.81168 -2.10619
1.65547 -4.63712 -2.04651
1.53792 -4.68945 -2.05769
1.63332 -4.64993 -1.99445
1.81448 -4.69879 -2.00068
1.05849 -4.99045 -2.2983
1.27316 -4.90335 -2.21725
1.39928 -4.7178 -2.04562
1.5067 -4.70059 -1.98892
0.970123 -5.32568 -2.51793
1.39642 -4.73618 -2.02435
1.80013 -4.73367 -1.9437
0.877609 -5.17889 -2.39269
1.38319 -4.74716 -1.98926
1.47878 -4.72702 -1.91364
1.61887 -4.73459 -1.89297
1.18977 -4.8934 -2.03935
1.4903 -4.74588 -1.88635
0.842743 -5.19601 -2.29549
1.37111 -4.98264 -2.05584
1.35948 -4.8013 -1.8981
1.05034 -5.34537 -2.3485
1.28339 -4.86658 -1.97458
1.61435 -4.7764 -1.84807
0.829605 -5.20868 -2.25533
0.650558 -5.36636 -2.39809
1.08655 -4.99554 -2.04363
1.24458 -4.83298 -1.92439
1.24524 -4.85498 -1.89839
0.635712 -5.35156 -2.34808
1.00256 -5.31616 -2.25685
1.01613 -5.10483 -2.09858
1.3521 -4.82562 -1.86389
1.35851 -4.85342 -1.8532
0.954956 -5.24936 -2.19377
1.14481 -5.14017 -2.0637
1.24176 -4.88794 -1.87496
1.36617 -4.88187 -1.84454
1.49811 -4.84915 -1.79663
1.25385 -5.33331 -2.15137
0.610199 -5.40216 -2.29803
0.699081 -5.27118 -2.1974
1.13864 -5.38049 -2.18951
0.898499 -5.20938 -2.09272
0.437836 -5.61575 -2.43627
0.590576 -5.40378 -2.24481
0.882813 -5.19345 -2.06807
0.942352 -5.10031 -1.98416
1.13834 -4.98413 -1.87429
1.24011 -4.94565 -1.82637
0.783646 -5.2576 -2.11451
0.856522 -5.16888 -2.03826
1.33339 -4.90695 -1.76228
0.688446 -5.31799 -2.14579
0.929916 -5.07767 -1.94817
0.839569 -5.19806 -2.04645
0.479019 -5.46774 -2.25301
0.586563 -5.40054 -2.19209
0.678925 -5.33884 -2.14151
0.939194 -5.11954 -1.95611
0.749847 -5.25336 -2.04945
1.13174 -5.03473 -1.82321
0.394592 -5.55743 -2.29995
0.389297 -5.59756 -2.31376
0.459137 -5.50247 -2.19125
0.553894 -5.41522 -2.15068
0.743546 -5.29605 -2.00884
0.83548 -5.20743 -1.94378
1.00021 -5.10257 -1.83748
1.23744 -5.0463 -1.74358
0.263412 -5.65027 -2.33945
0.899872 -5.17673 -1.85432
0.453766 -5.51791 -2.15462
0.805969 -5.21832 -1.89076
0.727402 -5.30939 -1.94257
0.901169 -5.20331 -1.83968
0.54451 -5.49112 -2.08957
0.687973 -5.31729 -1.94639
0.998749 -5.16779 -1.75326
0.436615 -5.5517 -2.09875
-0.983673 -6.81406 -1.93749
0.542206 -5.48355 -2.06183
0.703705 -5.31387 -1.8904
0.607895 -5.3721 -1.93874
0.525345 -5.49612 -2.0153
0.897369 -5.25626 -1.75057
0.436447 -5.58871 -2.08661
0.43486 -5.55978 -2.0515
0.601624 -5.40762 -1.89632
0.700806 -5.35593 -1.84511
0.785309 -5.297 -1.78563
0.413651 -5.58688 -2.03201
0.689285 -5.38266 -1.82663
0.779022 -5.32156 -1.75462
0.396301 -5.60184 -1.99509
0.896072 -5.30817 -1.7005
0.583267 -5.42673 -1.85014
0.668396 -5.36594 -1.7907
0.687363 -5.39349 -1.78913
0.790146 -5.38153 -1.74788
1.75392 -5.89282 -1.76726
0.379745 -5.61719 -1.94864
0.48024 -5.53259 -1.89223
0.640564 -5.41879 -1.75946
0.454819 -5.52008 -1.89023
0.448776 -5.56152 -1.8429
0.38179 -5.64694 -1.92394
1.88742 -6.19843 -1.77641
1.90535 -6.25217 -1.76811
0.88797 -5.41162 -1.59792
0.541595 -5.55093 -1.74039
0.560074 -5.30557 -1.59061
0.544449 -5.55276 -1.69419
0.431244 -5.64886 -1.74179
1.60744 -6.69308 -1.92998
1.58876 -6.69376 -1.89369
0.425644 -5.67426 -1.70535
1.04182 -6.88852 -2.13291
1.48146 -6.85071 -1.94562
1.58295 -6.6955 -1.85419
1.74178 -6.45932 -1.65341
0.329483 -5.77512 -1.75753
1.01134 -6.866 -2.07895
0.752213 -5.55325 -1.49807
1.45976 -6.84512 -1.90655
0.422928 -5.73587 -1.67285
0.720596 -5.58298 -1.48129
1.00252 -6.89615 -2.04599
1.19995 -7.01102 -2.02709
1.1947 -7.02158 -2.0109
0.302811 -5.79169 -1.67722
0.986084 -6.91611 -1.99236
1.18977 -7.04141 -1.99081
0.108536 -5.89328 -1.78962
0.72612 -5.65176 -1.43935
1.17393 -7.03445 -1.96229
0.723557 -5.68491 -1.44286
0.992737 -6.95599 -1.94382
1.54918 -6.56247 -1.5734
0.962296 -6.94656 -1.93878
0.685333 -6.66599 -1.84602
0.95636 -6.98575 -1.90879
0.672501 -6.69534 -1.80192
0.583084 -5.76007 -1.3825
1.37489 -6.68839 -1.49735
0.665024 -6.71988 -1.77988
1.36435 -6.69736 -1.47281
0.882813 -6.97339 -1.76567
0.727493 -5.91736 -1.32984
0.736725 -7.46198 -1.99093
0.636765 -6.74088 -1.71072
0.73526 -5.97244 -1.3166
0.485306 -5.95474 -1.39225
0.42923 -6.05972 -1.24395
0.498276 -7.64716 -1.84064
0.398773 -6.05939 -1.23578
0.171341 -6.20651 -1.28631
0.984268 -6.99045 -1.278
0.308914 -6.23947 -1.23238
0.508423 -6.49582 -1.23998
0.808807 -6.99738 -1.28743
0.54483 -6.70328 -1.24489
0.352219 -6.53064 -1.23263
0.348022 -6.60599 -1.22937
0.438461 -6.90994 -1.24757
0.675278 -7.23639 -1.26523
0.442337 -7.01089 -1.25791
-0.107239 -6.49838 -1.28851
0.483414 -7.10297 -1.27097
0.511444 -7.25848 -1.28603
0.228867 -6.80746 -1.22824
0.299576 -7.12399 -1.25114
0.102737 -7.06458 -1.2424
0.156982 -7.27206 -1.28062
0.154556 -7.40616 -1.2753
0.129913 -6.36429 -1.27537
0.92218 -5.08835 -2.3435
0.553375 -6.79807 -1.23847
-0.357025 -6.34921 -1.75661
-0.196503 -6.80771 -1.19501
-0.12793 -6.4642 -1.27966
0.619324 -5.36816 -2.07093
0.0965118 -6.26254 -1.30067
0.974213 -5.05588 -2.18904
1.18893 -4.81302 -2.54916
1.60011 -4.62213 -2.34029
1.26385 -4.75504 -2.45167
1.57945 -4.62823 -2.30372
1.33334 -4.71219 -2.34749
1.69499 -4.59567 -2.24638
1.18571 -4.86154 -2.4865
1.27591 -4.78787 -2.44557
1.85094 -4.59824 -2.19804
1.03738 -5.05267 -2.60658
1.51563 -4.74429 -2.35213
1.23795 -4.82068 -2.34993
1.63683 -4.6105 -2.14851
1.1436 -4.90518 -2.39978
1.53966 -4.66095 -2.20063
1.79462 -4.6041 -2.12576
1.07436 -4.96664 -2.46308
1.30046 -4.75302 -2.25269
0.963074 -5.01642 -2.49244
1.64073 -4.63147 -2.12778
1.59213 -4.88599 -2.32242
1.74716 -4.61588 -2.04638
1.08733 -5.02002 -2.43622
1.49463 -4.66037 -2.11152
1.94286 -4.6069 -2.03821
1.20668 -4.86716 -2.25386
1.58836 -4.64633 -2.05384
1.44942 -4.65643 -2.06614
1.96303 -4.67331 -2.03498
1.0295 -5.00443 -2.3413
1.73119 -4.65198 -1.98682
1.57968 -4.6608 -2.00793
1.59734 -4.98734 -2.22944
1.54973 -4.67221 -1.95242
1.5867 -5.00656 -2.19328
1.70464 -4.66397 -1.94658
1.08437 -4.96616 -2.19987
1.17444 -4.90295 -2.14948
2.38263 -4.94492 -2.04845
0.913101 -5.09531 -2.31913
1.69745 -4.69354 -1.90302
2.00456 -4.80325 -1.95708
0.945129 -5.10269 -2.29839
1.54697 -4.99704 -2.13931
1.07895 -4.98187 -2.17516
1.22697 -4.84195 -2.03559
-0.00764465 -5.90005 -2.14442
1.07101 -4.99466 -2.14886
1.30275 -4.77716 -1.96777
1.69667 -4.73776 -1.85084
1.07806 -5.35733 -2.39931
1.12828 -4.91306 -2.06028
1.23112 -4.87372 -2.01157
1.33203 -4.82819 -1.96405
1.25404 -4.91318 -2.01121
2.34433 -4.99405 -1.94738
0.796432 -5.23923 -2.28879
1.2794 -4.95532 -2.01224
0.639206 -5.39059 -2.39468
0.968109 -5.26273 -2.2725
0.871323 -5.15952 -2.17926
1.51714 -4.77261 -1.80386
1.04259 -5.2034 -2.17953
0.603668 -5.36896 -2.33565
0.859146 -5.16751 -2.14859
1.16826 -5.37674 -2.2526
1.06831 -5.09155 -2.0531
1.10106 -5.13977 -2.06633
1.18851 -5.07736 -2.00712
1.24922 -5.32187 -2.15941
0.663071 -5.30182 -2.20035
1.07362 -4.97867 -1.90485
0.925766 -5.13141 -2.03009
0.98616 -5.03931 -1.93479
0.907211 -5.1254 -2.00159
1.1805 -4.96191 -1.84398
0.429581 -5.6004 -2.39581
0.674942 -5.35422 -2.19611
1.16153 -4.95853 -1.81631
0.492691 -5.50113 -2.29527
0.904709 -5.14511 -1.97923
0.9673 -5.05313 -1.91042
1.11617 -4.92618 -1.77331
0.89296 -5.14822 -1.93989
0.982834 -5.10913 -1.8865
0.328949 -5.69196 -2.42346
0.803879 -5.20428 -1.9866
1.06351 -5.06119 -1.81086
2.0161 -5.23853 -1.79084
0.791061 -5.24356 -1.95232
0.728195 -5.3364 -2.02918
0.9711 -5.13437 -1.84313
1.0719 -5.09811 -1.79083
1.17587 -5.05582 -1.74773
0.705002 -5.31253 -1.99129
0.874481 -5.19675 -1.87847
0.958206 -5.12982 -1.82486
1.1962 -5.08871 -1.74963
0.270828 -5.66953 -2.30183
0.864883 -5.21417 -1.84576
0.164169 -5.73074 -2.33553
0.27713 -5.70709 -2.28944
0.76532 -5.26062 -1.88007
0.678101 -5.34653 -1.9112
0.152725 -5.80167 -2.29144
0.917267 -5.17087 -1.7173
0.566986 -5.4158 -1.92728
0.646225 -5.36191 -1.84749
0.149796 -5.80551 -2.25027
0.854248 -5.30914 -1.74413
0.330811 -5.68106 -2.1119
0.122635 -5.78531 -2.19904
0.64888 -5.4017 -1.82235
-0.124603 -6.10126 -2.43427
0.0316772 -5.89108 -2.24492
0.371735 -5.57343 -1.97803
0.0247345 -5.87662 -2.23685
0.085907 -5.80215 -2.15407
0.304428 -5.66278 -2.04161
0.460251 -5.54227 -1.8951
-0.173447 -6.05087 -2.33704
0.0949707 -5.84268 -2.14392
0.295425 -5.69565 -2.02407
0.193527 -5.75858 -2.04854
0.288239 -5.67697 -2.00202
-0.0717926 -6.01221 -2.26006
-0.0121002 -5.86752 -2.15306
-0.261581 -6.15469 -2.38721
-0.0884247 -6.0033 -2.23795
0.264328 -5.67969 -1.96785
0.618439 -5.44171 -1.73269
0.647476 -5.30936 -1.63241
0.501953 -5.49783 -1.78504
0.187668 -5.79443 -2.02523
0.51442 -5.51102 -1.75535
0.332504 -5.62589 -1.85824
0.626617 -5.50275 -1.69422
0.650009 -5.34171 -1.61049
0.294327 -5.78522 -1.95967
-0.302917 -6.15805 -2.30656
-0.2034 -6.07239 -2.24445
-0.125137 -5.97733 -2.1473
0.154968 -5.8017 -1.94286
0.255142 -5.75412 -1.89737
-0.119781 -6.02225 -2.15269
0.513443 -5.5705 -1.70174
0.617523 -5.51175 -1.6674
-0.402008 -6.25623 -2.3415
-0.21611 -6.1022 -2.2038
0.231918 -5.75131 -1.84859
1.79683 -6.16287 -1.71299
-0.41922 -6.26138 -2.30082
-0.137924 -6.02762 -2.08941
-0.142838 -6.06354 -2.09352
0.214539 -5.75916 -1.80867
0.135056 -5.86829 -1.86316
-0.251892 -6.15399 -2.09231
0.313889 -5.74448 -1.73219
-0.263092 -6.12106 -2.09276
0.00363159 -5.89963 -1.85719
-0.267075 -6.16284 -2.04927
-0.063797 -6.04053 -1.93443
-0.366302 -6.2244 -2.11052
1.22374 -6.9003 -2.05225
0.0908203 -5.8793 -1.7622
1.37544 -6.88937 -1.98623
-0.361954 -6.26071 -2.09135
-0.275177 -6.17102 -2.0197
-0.167572 -6.13193 -1.96645
-0.0888214 -6.03668 -1.88014
0.0935211 -5.90149 -1.74158
1.21088 -6.90491 -2.02496
-0.27626 -6.19559 -2.00937
1.35318 -6.90564 -1.93693
0.708023 -5.6846 -1.43923
-0.1082 -6.05011 -1.84897
1.01457 -6.87344 -2.01979
1.23053 -6.96326 -2.01459
0.687424 -5.66632 -1.41768
-0.193161 -6.13602 -1.93098
1.0325 -6.92172 -2.02035
-0.208603 -6.11026 -1.8826
0.20491 -5.91708 -1.64731
1.3383 -6.91327 -1.90417
0.195206 -5.93643 -1.65585
1.23184 -7.02237 -1.95992
-0.107864 -6.05832 -1.79889
0.0848236 -5.98935 -1.68462
-0.013382 -6.05374 -1.73423
0.087677 -5.99875 -1.64886
-0.227921 -6.20807 -1.79376
-0.148972 -6.13907 -1.7235
-0.0535736 -6.10748 -1.6525
0.666473 -6.73172 -1.77809
-0.350739 -6.28677 -1.83982
0.0872955 -6.12259 -1.61348
-0.350311 -6.29599 -1.79257
0.0436096 -6.09406 -1.592
0.550995 -7.51294 -2.13856
0.0428162 -6.07419 -1.55109
-0.257309 -6.29385 -1.69169
0.883575 -7.00632 -1.7044
-0.162399 -6.24231 -1.63318
-0.13028 -6.31519 -1.65206
0.648224 -6.87122 -1.65522
-0.374435 -6.35739 -1.70847
-0.270599 -6.31503 -1.65812
0.525406 -7.59824 -2.0414
-0.282059 -6.30838 -1.63259
0.44693 -6.02679 -1.25451
0.368896 -7.63025 -2.0787
0.0414886 -6.21344 -1.47254
-0.40416 -6.40659 -1.64779
0.0621033 -7.31125 -1.93201
0.48587 -7.64542 -1.93747
0.60704 -7.56653 -1.85212
0.0399475 -7.30231 -1.89583
0.531647 -6.26886 -1.24037
0.203323 -6.16888 -1.27934
0.556229 -6.33035 -1.24213
0.463226 -7.65759 -1.88614
0.603836 -7.55154 -1.81318
0.566299 -6.36401 -1.23727
0.298004 -7.63004 -1.93223
0.331299 -6.18039 -1.21376
0.97963 -6.86911 -1.31223
0.25473 -6.29028 -1.27839
1.00093 -6.94009 -1.29874
-0.221466 -7.0553 -1.78744
0.345474 -6.24838 -1.20258
0.293045 -7.6196 -1.87777
0.666306 -6.61258 -1.24601
0.443985 -7.65732 -1.79253
0.248337 -6.32666 -1.24533
0.743408 -6.79141 -1.26121
-0.248154 -7.07669 -1.75732
0.235565 -7.63898 -1.80221
-0.0202179 -7.35275 -1.75167
-0.536636 -6.60379 -1.58062
-0.258392 -7.08856 -1.6984
0.218536 -7.62692 -1.77354
-0.00111389 -6.40958 -1.28207
0.280243 -6.47629 -1.21568
-0.530426 -6.64188 -1.58863
-0.0869904 -6.49579 -1.34667
-0.538986 -6.64838 -1.54504
-0.0765228 -7.29422 -1.66354
0.643356 -7.04126 -1.26369
0.100693 -6.4516 -1.18838
-0.320465 -7.00198 -1.59989
-0.340302 -6.96234 -1.57267
-0.109756 -7.2717 -1.61493
0.453888 -6.95221 -1.25169
-0.0987244 -7.30927 -1.61354
0.0067749 -6.55164 -1.23329
-0.247711 -6.59558 -1.29667
-0.0524902 -7.51846 -1.62729
-0.330536 -6.74063 -1.36637
0.340942 -7.1265 -1.25719
0.582886 -7.34933 -1.25412
-0.243408 -6.61115 -1.26858
-0.489594 -6.69388 -1.36003
-0.451431 -6.75894 -1.34323
0.163605 -7.11472 -1.24727
-0.241699 -6.76041 -1.241
-0.228516 -6.82993 -1.23845
0.296463 -7.51385 -1.28564
-0.212952 -6.89825 -1.2408
-0.492828 -6.84766 -1.29248
-0.368073 -6.87756 -1.24621
-0.225571 -6.92972 -1.2052
-0.159454 -7.14261 -1.2457
-0.362778 -6.93973 -1.23503
-0.147018 -7.21887 -1.24644
-0.042511 -7.54596 -1.2814
-0.765579 -7.04721 -1.33537
-0.247345 -7.5582 -1.28174
-0.0149689 -7.77301 -1.27156
-0.439529 -7.37048 -1.25687
-0.408966 -7.50827 -1.27324
-0.153915 -7.93359 -1.29174
-0.293228 -7.99774 -1.33351
0.18222 -6.56061 -1.19781
0.587326 -5.3761 -1.64688
0.0206757 -7.30423 -1.85382
-0.104721 -6.20084 -1.63348
-0.7444 -7.09567 -1.35837
1.20293 -4.84869 -2.59522
1.98793 -4.58804 -2.33624
1.09274 -4.939 -2.59045
1.54445 -4.72363 -2.42006
1.1631 -4.86102 -2.50256
1.06364 -4.95609 -2.53997
1.17639 -4.90753 -2.49527
1.05698 -4.97763 -2.50291
1.67407 -4.87527 -2.423
1.6544 -4.61713 -2.17658
2.07535 -4.6225 -2.14754
1.02704 -4.99918 -2.44004
1.12154 -4.93863 -2.38413
1.07462 -4.98505 -2.26875
1.96643 -4.68033 -1.97315
0.978104 -5.06952 -2.29409
1.45438 -4.76059 -2.0288
1.40585 -4.88098 -2.08155
1.46104 -4.79272 -2.00292
0.780853 -5.22122 -2.35349
1.1255 -5.37152 -2.4754
1.86101 -4.689 -1.85436
1.9106 -4.72797 -1.86436
0.766632 -5.37128 -2.45029
0.943451 -5.11349 -2.20598
1.02742 -5.03836 -2.15181
1.57037 -5.03754 -2.12269
1.56038 -5.04169 -2.10585
0.9646 -5.1456 -2.2044
1.45583 -4.85504 -1.93111
1.9467 -4.78415 -1.8418
1.98473 -4.81711 -1.84612
0.691483 -5.49384 -2.48037
0.659225 -5.31311 -2.32719
0.825729 -5.20615 -2.1953
1.00362 -5.20065 -2.19877
0.659515 -5.32382 -2.31699
1.0475 -5.24084 -2.22134
1.03487 -5.10516 -2.08825
2.02487 -4.86267 -1.83914
0.646072 -5.34872 -2.30439
1.28331 -5.03217 -2.01
1.10001 -5.03571 -2.00542
1.3591 -5.09912 -2.03886
0.629333 -5.32858 -2.26138
0.857712 -5.25262 -2.18126
0.555588 -5.56943 -2.44999
0.789886 -5.22195 -2.1481
0.489975 -5.51605 -2.38214
0.551117 -5.45734 -2.29747
0.698227 -5.27106 -2.16978
1.21513 -4.90015 -1.82383
1.55107 -4.89059 -1.76982
2.25934 -5.07233 -1.8582
0.482193 -5.52338 -2.36091
2.32283 -5.12277 -1.87008
0.766815 -5.2251 -2.06913
0.850845 -5.16766 -2.00519
1.11664 -4.98447 -1.84293
0.385269 -5.60641 -2.38678
0.587585 -5.35208 -2.16825
1.30656 -5.00824 -1.82447
1.59244 -4.95154 -1.75223
0.591858 -5.38321 -2.14474
0.932846 -5.13049 -1.91792
1.67252 -5.02747 -1.76284
0.355591 -5.60101 -2.33574
0.287109 -5.69876 -2.40296
0.449921 -5.56042 -2.26656
0.51178 -5.46503 -2.19437
0.574005 -5.40338 -2.09534
1.11414 -5.04105 -1.78096
1.68831 -5.06558 -1.74029
0.481842 -5.44489 -2.16198
0.402634 -5.52551 -2.21459
0.497726 -5.49414 -2.18943
1.12724 -5.06805 -1.76985
0.620422 -5.3147 -2.00209
0.732666 -5.27969 -1.96214
0.838776 -5.23727 -1.91708
1.10959 -5.06412 -1.75113
1.8242 -5.186 -1.76712
2.21962 -5.32217 -1.80624
0.171509 -5.78781 -2.38851
0.238983 -5.69711 -2.31013
0.560364 -5.42719 -2.04951
0.168869 -5.79535 -2.37633
0.255585 -5.73981 -2.30316
0.158524 -5.79364 -2.35684
0.487335 -5.51617 -2.10278
0.533005 -5.4166 -2.01453
0.628159 -5.37115 -1.95879
1.02112 -5.16751 -1.76278
0.30101 -5.63773 -2.19884
0.384644 -5.57208 -2.13801
0.5047 -5.3981 -1.98579
0.448853 -5.50821 -2.04432
0.529495 -5.43933 -1.98677
0.221115 -5.74194 -2.23442
0.280624 -5.6572 -2.14309
0.627182 -5.39682 -1.93211
0.719711 -5.3432 -1.87922
2.03743 -5.41663 -1.7642
0.217682 -5.73831 -2.23101
0.379425 -5.60919 -2.09394
0.521652 -5.45212 -1.96155
0.621643 -5.40118 -1.91916
1.09052 -5.26648 -1.75487
1.12311 -5.30478 -1.75947
0.115799 -5.81192 -2.2543
0.20636 -5.74597 -2.20228
0.294754 -5.6846 -2.14395
1.17134 -5.35696 -1.77084
2.21028 -5.57498 -1.79222
0.344208 -5.59201 -2.04731
0.439468 -5.54742 -1.99102
1.04868 -5.26575 -1.69918
2.30455 -5.65445 -1.81486
0.375732 -5.63919 -2.05924
0.330902 -5.61661 -2.00097
0.428619 -5.56235 -1.9585
0.361252 -5.6441 -2.0291
-0.0877533 -5.96158 -2.30293
0.0631409 -5.81107 -2.15008
0.480988 -5.50003 -1.84911
0.573013 -5.4454 -1.79952
0.163544 -5.75998 -2.10762
0.413635 -5.56769 -1.92806
0.881134 -5.31036 -1.66279
-0.0129242 -5.90689 -2.20483
0.177216 -5.80051 -2.09762
1.45723 -5.53207 -1.71529
-0.156387 -6.09027 -2.36039
0.164871 -5.78537 -2.08747
0.0602264 -5.83557 -2.12302
0.308853 -5.64529 -1.93567
0.402588 -5.59476 -1.88391
1.57982 -5.65646 -1.74463
-0.245758 -6.19754 -2.39794
-0.178741 -6.07922 -2.31954
0.189636 -5.83969 -2.08648
0.571854 -5.48227 -1.76211
0.65361 -5.45721 -1.69929
1.60173 -5.69254 -1.73547
0.14418 -5.8038 -2.03207
0.298553 -5.66629 -1.8984
0.557983 -5.47916 -1.7434
0.667236 -5.31534 -1.58929
0.888458 -5.37164 -1.6112
-0.185883 -6.09186 -2.29365
0.060257 -5.87006 -2.09332
0.23465 -5.74774 -1.97631
1.65714 -5.75665 -1.74049
-0.264008 -6.19772 -2.35577
-0.0945435 -6.03998 -2.22361
0.0602722 -5.88123 -2.08383
0.215851 -5.74698 -1.94289
0.45166 -5.55331 -1.751
-0.266724 -6.43073 -2.51283
-0.0430298 -5.93387 -2.12056
0.130035 -5.82004 -1.99121
0.232529 -5.76761 -1.95471
0.682388 -5.49219 -1.67633
1.67366 -5.79584 -1.72102
0.280777 -5.67343 -1.86086
0.363785 -5.62253 -1.79285
0.680984 -5.51297 -1.65396
0.88855 -5.42068 -1.562
1.6709 -5.80627 -1.70655
0.263184 -5.66891 -1.83431
-0.260101 -6.24716 -2.32699
-0.136322 -6.02438 -2.14807
0.440201 -5.56851 -1.71816
0.576569 -5.56433 -1.69063
0.88446 -5.45709 -1.54591
1.83076 -5.97244 -1.74041
-0.137985 -6.04044 -2.13163
0.11528 -5.84692 -1.94019
0.263565 -5.70883 -1.79896
0.446121 -5.60251 -1.69583
0.844223 -5.4072 -1.51393
-0.210403 -6.13742 -2.20402
0.188843 -5.763 -1.85041
0.579376 -5.5899 -1.67049
0.754181 -5.4744 -1.5575
1.87749 -6.0372 -1.7399
0.0171204 -5.9043 -1.9801
0.573105 -5.59406 -1.65688
-0.489288 -6.37018 -2.38218
-0.0668488 -5.98782 -2.02802
0.0901947 -5.84781 -1.89281
0.376083 -5.7038 -1.73866
0.178055 -5.79037 -1.83639
-0.899521 -6.64563 -2.59754
0.593979 -5.63766 -1.64771
-0.498688 -6.62869 -2.52578
-0.418198 -6.29575 -2.27949
0.249954 -5.72543 -1.76063
-0.705948 -6.50046 -2.44145
-0.497437 -6.64539 -2.51799
-0.420273 -6.29828 -2.24725
0.0922699 -5.85373 -1.84398
0.248367 -5.74106 -1.74386
0.36116 -5.71494 -1.70365
-0.321793 -6.24417 -2.19016
-0.908035 -6.64896 -2.5649
-0.802887 -6.61432 -2.50156
-0.330612 -6.24115 -2.17276
-0.0152893 -5.94031 -1.88788
0.232452 -5.75323 -1.70579
0.370575 -5.74295 -1.69372
-0.719208 -6.5119 -2.40013
-0.515121 -6.40314 -2.29815
-0.438248 -6.30313 -2.20246
-0.0235596 -5.92764 -1.88256
-0.913025 -6.70328 -2.54575
-0.495224 -6.71329 -2.47972
0.154327 -5.84595 -1.7458
0.243683 -5.78592 -1.69602
0.440002 -5.69 -1.60459
-0.812241 -6.6225 -2.4583
1.61812 -6.61624 -1.98281
1.79515 -6.24591 -1.69721
-0.722549 -6.53915 -2.37519
-0.508209 -6.70709 -2.45148
1.85692 -6.31543 -1.70881
-0.723343 -6.55841 -2.36181
-0.346603 -6.28922 -2.10286
0.0510559 -5.92239 -1.75765
1.3557 -6.78027 -2.05526
-0.827499 -6.64359 -2.40616
-0.614166 -6.54575 -2.3024
-0.287155 -6.20358 -1.99022
-0.136185 -6.04568 -1.84477
0.254196 -5.86804 -1.64169
-0.928909 -6.72827 -2.46574
-0.626907 -6.53061 -2.26976
0.052948 -5.94907 -1.73882
-0.936798 -6.72256 -2.44709
1.49503 -6.78818 -1.94355
-0.74234 -6.58688 -2.29727
-0.424942 -6.20181 -1.99389
0.0438385 -5.9603 -1.71297
-0.0574646 -6.01065 -1.75091
1.47972 -6.815 -1.89724
-0.837387 -6.68008 -2.36057
0.642197 -5.71362 -1.40266
-0.488205 -6.36154 -2.04982
0.256317 -5.90701 -1.61107
-0.95462 -6.75845 -2.39621
-0.852737 -6.69897 -2.33649
-0.756699 -6.61261 -2.24703
-0.656235 -6.54617 -2.18966
-0.579056 -6.42291 -2.11913
0.648422 -5.74295 -1.38383
-0.590958 -6.4129 -2.09791
-0.484695 -6.38864 -2.03976
-0.233643 -6.16641 -1.83892
-0.151978 -6.08356 -1.78454
-0.589935 -6.44211 -2.0821
-0.162949 -6.07849 -1.76728
1.05746 -6.96701 -2.04222
0.146988 -5.9899 -1.61014
-0.965652 -6.77176 -2.34595
-0.660645 -6.57159 -2.16421
-0.769241 -6.63528 -2.20359
-0.661652 -6.5986 -2.14618
-0.503632 -6.40579 -1.98687
-0.25499 -6.17557 -1.78971
-0.875778 -6.70584 -2.249
-0.0584412 -6.10068 -1.67767
-0.971786 -6.78555 -2.32339
1.01825 -6.99014 -1.95538
0.525803 -5.84872 -1.34509
-0.788788 -6.64072 -2.15325
-0.656662 -6.65085 -2.13248
-0.406616 -6.37848 -1.91216
-0.985794 -6.78839 -2.28551
-0.602631 -6.46329 -1.9933
-0.473373 -6.26959 -1.84427
-0.892715 -6.71777 -2.20052
-0.66066 -6.65814 -2.11441
-0.618515 -6.49478 -1.98524
-0.521378 -6.43292 -1.93082
-0.979385 -6.8316 -2.2826
-0.805939 -6.64117 -2.09525
-0.420288 -6.39545 -1.87201
0.13414 -6.064 -1.526
-0.897781 -6.73553 -2.17934
-0.702133 -6.59705 -2.05244
-0.524551 -6.44711 -1.91504
-0.718094 -6.54861 -2.0346
-0.539322 -6.44595 -1.88395
0.0146332 -6.11313 -1.53651
-0.906601 -6.75327 -2.14906
-0.61528 -6.54462 -1.96288
-0.443298 -6.39279 -1.82576
-1.0067 -6.81525 -2.19719
-0.818512 -6.65298 -2.06042
0.715881 -7.38922 -2.0967
-0.744247 -6.54916 -1.9914
-0.649094 -6.50961 -1.90848
-0.555984 -6.45526 -1.84253
0.0105896 -6.15146 -1.49887
-0.918518 -6.75064 -2.09481
-0.822495 -6.69852 -2.04289
-0.178864 -6.24295 -1.61317
-0.642975 -6.56543 -1.88743
0.670593 -7.36865 -2.02944
-0.934967 -6.76013 -2.07674
-0.811356 -6.7562 -2.04
-0.757828 -6.59125 -1.92834
0.0179443 -6.1937 -1.4784
-1.03642 -6.84836 -2.1309
-0.932617 -6.78271 -2.07206
0.981903 -6.35077 -1.29569
-0.806671 -6.79184 -2.03321
-0.405594 -6.37558 -1.68853
-0.268341 -6.35474 -1.63529
0.706223 -7.46701 -2.00993
0.322372 -6.10385 -1.29559
-1.1105 -7.00995 -2.23712
-0.940857 -6.77798 -2.0544
-0.655914 -6.59943 -1.8423
-0.275833 -6.35559 -1.62029
0.851715 -6.99567 -1.67161
-0.95433 -7.104 -2.22948
-0.933334 -6.81424 -2.05602
-0.835922 -6.75241 -1.98479
-0.455902 -6.49432 -1.73451
-0.373611 -6.41638 -1.66586
0.799118 -7.40228 -1.89248
0.112762 -6.1955 -1.38192
0.861847 -7.02487 -1.66359
-0.871704 -6.9902 -2.12428
1.16855 -6.60373 -1.32902
-0.562973 -6.54025 -1.77633
-0.466324 -6.49448 -1.71333
0.466034 -6.13565 -1.24145
-0.853455 -6.74942 -1.94595
-0.768997 -6.64926 -1.87266
-0.37468 -6.45547 -1.63798
0.405731 -7.57831 -2.07219
-0.673782 -6.61636 -1.7944
0.396194 -7.57935 -2.0531
0.563705 -7.60394 -1.99485
-0.757858 -6.65417 -1.84066
-0.586502 -6.54434 -1.72484
-0.507828 -6.50253 -1.69714
0.403717 -7.60034 -2.04326
0.656235 -7.51242 -1.89289
-0.774277 -6.69229 -1.83876
-0.670105 -6.63467 -1.79212
0.376129 -7.57962 -2.01438
0.105301 -6.24326 -1.3308
0.340042 -6.20328 -1.23796
-0.591217 -6.57141 -1.69929
0.381882 -7.61075 -1.99847
0.552475 -7.62198 -1.94615
0.18129 -6.17383 -1.25985
-0.689362 -6.64563 -1.74335
0.635635 -7.51285 -1.85334
1.07919 -6.78983 -1.31173
-0.865372 -6.80112 -1.89433
0.354599 -7.6019 -1.9579
-0.886017 -6.76144 -1.84209
-0.591843 -6.5997 -1.6816
-0.607452 -6.60287 -1.65963
0.36499 -7.64627 -1.94707
-0.697662 -6.66794 -1.70195
0.333908 -7.61844 -1.90733
0.505173 -7.63232 -1.87202
0.80484 -6.70013 -1.26256
-0.992157 -6.8602 -1.89841
-0.799957 -6.74307 -1.75742
0.906784 -6.84735 -1.28881
-0.702042 -6.69516 -1.69197
-0.990616 -6.86139 -1.8475
-0.800583 -6.78262 -1.73666
-0.696304 -6.73184 -1.68454
-0.594742 -6.67065 -1.60119
0.486801 -7.64557 -1.79834
0.204941 -6.35614 -1.19066
-0.699265 -6.7149 -1.65031
0.165344 -6.47153 -1.24931
-0.814056 -6.80835 -1.69565
-0.466217 -6.72586 -1.57191
0.453598 -7.64987 -1.76536
-1.03128 -6.87662 -1.803
-0.908951 -6.9032 -1.75189
-0.732712 -6.71368 -1.61874
0.124084 -6.45093 -1.19735
-0.911942 -6.85513 -1.73355
-0.71611 -6.76633 -1.62574
-0.504044 -6.70212 -1.51237
-0.0358276 -7.35782 -1.71098
-0.995514 -6.9053 -1.78788
-0.712387 -6.79245 -1.61985
0.529266 -6.87357 -1.24706
-1.036 -6.91666 -1.77675
-0.806671 -6.802 -1.65077
0.825043 -7.09351 -1.24263
-1.02049 -6.98001 -1.78637
-0.835403 -6.82413 -1.64316
-0.112549 -7.26266 -1.62524
-0.81015 -6.8551 -1.63306
-0.513092 -6.96881 -1.60286
-0.926849 -6.95343 -1.69185
-0.841385 -6.8511 -1.61817
-0.512405 -6.9938 -1.58673
-0.481155 -6.82043 -1.48755
-0.287079 -6.70737 -1.36301
0.0261536 -6.59973 -1.18178
-0.83963 -6.89886 -1.59978
-0.427979 -6.72324 -1.36726
-0.452225 -6.71738 -1.35933
-0.0974579 -6.65668 -1.18762
-0.320816 -6.73727 -1.28283
0.246597 -7.05762 -1.2362
-0.964874 -6.96097 -1.6084
0.339706 -7.20181 -1.25942
-0.959335 -6.99609 -1.60557
-0.457428 -6.7648 -1.31035
0.0458221 -6.96213 -1.23244
0.404526 -7.32639 -1.27531
-0.943588 -7.05725 -1.61357
-0.220078 -6.75781 -1.18428
0.0870819 -7.10052 -1.2302
-0.418259 -6.87167 -1.29602
-0.325211 -6.8165 -1.23384
-1.05829 -7.1405 -1.64491
-0.441711 -6.83966 -1.2723
-1.06953 -7.12662 -1.62616
-0.547501 -6.8938 -1.32072
-1.08043 -7.11478 -1.60739
-0.556503 -6.89658 -1.30491
-0.000808716 -7.23642 -1.24249
0.298279 -7.5184 -1.26332
-1.09048 -7.16592 -1.59203
-0.419739 -6.96075 -1.23454
-0.659988 -6.996 -1.34385
-0.154358 -7.25894 -1.251
-1.10344 -7.21179 -1.54842
-0.664093 -7.00687 -1.30889
-0.411377 -7.0007 -1.20473
-0.149277 -7.31244 -1.25017
-1.10016 -7.17935 -1.54397
-0.443329 -6.96536 -1.19278
-0.0942841 -7.41257 -1.26154
-0.793625 -7.0351 -1.34135
-0.438431 -6.99576 -1.18818
-0.313736 -7.27261 -1.24821
-0.993668 -7.23544 -1.44264
-0.802628 -7.1037 -1.31124
-0.866928 -7.20856 -1.38571
-0.544983 -7.11044 -1.2079
-0.191422 -7.59396 -1.2833
-0.644638 -7.15939 -1.24936
-0.150208 -7.70099 -1.29525
-1.00246 -7.2504 -1.40122
-0.669937 -7.19577 -1.21614
-0.10994 -7.89243 -1.28842
-0.895065 -7.23825 -1.32809
-0.772675 -7.26221 -1.27802
-0.109818 -7.86981 -1.27055
-0.254044 -7.89349 -1.31779
-0.224228 -7.98181 -1.32488
-0.212341 -8.03165 -1.31999
-0.904922 -7.35876 -1.27585
-0.416199 -7.93414 -1.3219
-0.595032 -6.57327 -1.64876
-1.20941 -7.16681 -1.70457
-1.25575 -7.14798 -1.90274
-1.34041 -7.59399 -1.75317
-1.10588 -6.89072 -2.48473
0.733887 -5.32751 -1.75936
-1.49142 -7.44806 -2.2981
1.3326 -4.77383 -2.52554
1.16763 -4.82407 -2.53803
1.37152 -4.72159 -2.38301
1.83788 -4.58005 -2.25255
1.49718 -4.68619 -2.3073
1.60011 -4.62094 -2.23754
1.46262 -4.68365 -2.27776
1.47379 -4.71082 -2.26005
1.23233 -4.84338 -2.34998
1.50291 -4.73584 -2.26117
1.53802 -4.76822 -2.26026
1.45322 -4.62561 -2.10295
1.27933 -4.80756 -2.20325
1.58093 -4.84055 -2.22487
1.58981 -4.86758 -2.20496
1.06157 -4.97559 -2.26502
1.58514 -4.88806 -2.17916
1.58383 -4.93576 -2.12777
0.806412 -5.17886 -2.23174
0.67247 -5.35233 -2.36717
0.810852 -5.19339 -2.22174
0.72287 -5.28171 -2.26095
1.04419 -5.13339 -2.08033
0.759537 -5.22763 -2.12457
1.00684 -5.01849 -1.93338
0.486694 -5.55841 -2.40336
0.463547 -5.55106 -2.37796
1.38277 -4.8913 -1.76098
0.435806 -5.54727 -2.34219
1.27478 -5.00378 -1.76544
0.392166 -5.57379 -2.25239
1.28059 -5.05704 -1.71381
0.374725 -5.59329 -2.20732
1.3024 -5.08957 -1.69952
0.725647 -5.35712 -1.94809
0.860916 -5.22427 -1.78477
1.14815 -5.15356 -1.70785
1.37535 -5.16711 -1.68484
0.335251 -5.62653 -2.11698
0.328888 -5.6431 -2.09098
1.52586 -5.26984 -1.71625
0.423553 -5.59097 -2.0317
1.56001 -5.29846 -1.71763
1.94629 -5.37051 -1.75008
0.846573 -5.27911 -1.71083
0.217987 -5.72836 -2.09123
1.0576 -5.34052 -1.64275
1.12592 -5.39355 -1.65683
