19.1465 18.4078 -1.69457
18.8007 18.928 -0.717319
18.5767 18.3879 -0.767105
20.1626 19.3859 -1.68226
16.911 17.9453 -1.50188
18.8945 19.143 -1.45329
19.2434 18.5343 -1.94418
19.4108 19.6106 -0.781498
18.235 18.5844 -0.801426
19.5369 18.8361 -1.39936
18.0247 17.4318 -2.16587
18.4045 18.4869 -0.78196
18.8066 19.6432 -1.68784
20.1534 19.5789 -1.40993
18.3868 17.8739 -1.18542
19.0482 19.3175 -0.723854
19.1387 19.0834 -1.41349
18.6862 18.7506 -1.55517
19.5262 18.8145 -1.35577
18.6344 19.4679 -1.67871
18.8624 18.1868 -1.8941
20.056 19.7506 -1.33716
19.1929 19.3905 -0.728161
18.2942 18.0292 -0.987736
17.3426 18.0523 -1.39997
19.0751 18.364 -1.66378
18.0208 17.5529 -1.46339
18.839 18.1533 -1.84666
18.9902 19.6881 -0.754822
16.9621 18.2525 -1.44391
18.7076 18.1458 -1.38628
19.4936 18.7297 -1.79764
19.8217 19.0123 -1.6129
17.2481 17.4534 -1.49516
16.733 17.9897 -1.60244
17.3434 17.7419 -1.38538
18.6385 18.0091 -1.93896
18.471 17.9732 -1.17085
17.6509 17.2917 -1.48839
19.8396 19.0923 -1.69427
17.9042 18.7129 -0.873714
17.1618 18.0688 -1.37923
20.0269 19.1566 -2.15343
19.0139 18.9636 -0.698441
17.2865 18.1349 -1.41005
16.8497 17.6567 -1.68544
20.0247 19.2078 -1.8769
17.7459 17.3677 -1.40924
19.9422 19.9101 -1.29386
19.6668 18.9736 -1.33094
18.897 19.9045 -0.798035
18.2312 18.7657 -1.65291
18.7935 18.138 -1.89342
16.7929 18.1866 -1.51767
19.2419 19.4949 -0.735756
19.1839 19.9898 -0.810032
17.3464 17.1285 -1.9901
17.8621 17.3782 -1.90238
17.5969 17.208 -1.63878
18.8672 19.9361 -0.818008
20.1306 19.3489 -1.59854
19.5886 19.3766 -1.23907
20.0343 19.4068 -1.14094
17.8308 17.4121 -1.4477
17.5109 17.1928 -1.61273
18.2469 17.6919 -1.79013
18.3545 18.8784 -1.60509
18.7746 18.1076 -2.03611
19.4169 18.6753 -1.97094
19.5746 18.8082 -1.8107
18.7813 19.1271 -0.730141
19.7406 19.5891 -0.828636
19.8272 19.3267 -1.18864
17.9927 19.0455 -1.79125
16.6963 18.0419 -1.61232
19.1948 19.208 -0.72477
18.3664 17.8061 -1.9866
18.7986 18.5999 -0.740547
19.3479 19.2962 -0.72316
19.4281 19.0529 -0.844948
18.982 20.1444 -0.858818
18.8439 19.5451 -1.65513
17.6909 17.6883 -1.33232
19.442 19.7444 -0.76511
16.9185 17.7623 -1.5407
19.0357 18.4122 -1.29613
17.7442 17.4403 -1.35203
20.0727 19.2139 -2.05595
18.8549 18.6563 -0.740448
18.2654 19.5797 -0.829994
17.4859 17.2837 -1.65779
19.836 20.09 -1.54119
20.1782 19.5132 -1.39345
17.4924 17.1898 -2.1564
18.2881 18.2399 -0.845886
19.0664 19.4125 -1.5687
19.241 19.1935 -0.727402
18.5245 17.9031 -1.45047
17.3469 17.7029 -1.38783
16.878 17.4281 -1.82553
19.626 18.8646 -1.64904
18.303 19.2471 -1.44643
18.553 19.4513 -0.768326
18.2569 19.3841 -0.799828
19.7526 18.9622 -1.59762
19.263 18.7557 -1.25066
18.6316 19.3487 -1.6534
19.3356 19.3896 -0.718468
19.0452 18.8511 -0.735786
18.1994 17.9378 -1.0255
19.3998 20.487 -1.3965
18.9609 19.4398 -1.66587
19.9374 19.8889 -1.18355
18.4735 17.9091 -1.35196
19.5773 19.162 -0.850449
17.4377 17.0888 -1.8533
19.8339 19.0418 -1.73665
19.9794 19.4794 -1.00335
17.191 17.9453 -1.39365
18.6217 19.6145 -0.785748
19.3705 18.9902 -1.30061
17.4336 17.091 -1.79052
19.7991 19.0515 -1.7047
17.51 17.1691 -1.63239
19.8394 19.1782 -1.23787
18.6573 19.5616 -1.6672
18.7333 19.3298 -0.737091
18.5718 17.9342 -1.71212
18.264 17.6951 -1.63387
18.082 19.3318 -0.831852
19.6989 19.3835 -1.16394
18.3138 19.6286 -1.62755
17.989 17.4629 -1.6869
16.9457 17.5508 -1.68336
18.4407 18.6895 -0.748573
20.0422 19.4341 -1.1447
19.349 18.6373 -1.95435
18.2027 18.6079 -0.803135
19.0978 18.5461 -1.23335
19.4339 19.6362 -0.75872
18.9493 19.1995 -1.44225
19.3349 19.0884 -0.714279
18.8618 19.7137 -0.772312
17.3506 17.5209 -1.47143
17.3296 17.4279 -1.48914
18.0522 19.1823 -0.819748
16.7221 17.9821 -1.62574
20.157 19.495 -1.34144
19.8107 19.1144 -2.06281
19.0795 19.2461 -0.724205
18.4237 17.836 -1.56404
19.7026 20.1381 -1.19968
18.1453 17.5826 -1.97903
16.8069 18.2356 -1.51361
18.608 19.791 -0.801411
18.3536 17.7803 -1.84206
18.9058 18.2933 -1.39259
19.0863 19.7327 -0.763626
20.0372 19.3327 -1.34442
17.9234 18.8319 -1.76239
19.4787 19.0324 -0.9533
19.7884 19.0273 -1.99689
19.8915 19.3967 -0.951714
17.8018 18.8791 -0.891212
18.3877 18.3321 -0.826172
19.3852 19.6833 -0.762363
19.1313 20.3211 -0.950905
19.7371 18.9563 -1.94865
18.4966 17.9926 -1.29663
17.1563 18.7513 -1.28684
18.8535 19.6923 -1.69823
18.3657 19.7592 -1.73412
18.7926 18.5493 -0.750687
18.315 18.7072 -0.767017
18.2046 17.7393 -1.39619
18.6826 19.9185 -0.821793
17.9499 17.3927 -2.19435
20.2186 19.5157 -1.78125
20.2082 19.542 -1.84985
20.0058 19.6045 -1.07624
18.3269 18.3813 -0.828453
18.8846 19.4293 -0.724148
17.0539 18.4369 -1.41043
19.4857 18.7169 -1.69249
17.3255 18.075 -1.40042
18.0306 17.7647 -1.11319
19.8457 19.2233 -1.16858
17.5789 17.1543 -1.96199
19.1454 19.2241 -0.723579
19.0834 19.2393 -1.44537
17.938 17.4521 -1.54984
19.1715 18.4686 -1.55649
18.4324 17.9937 -1.34
18.498 17.9334 -1.15042
19.5848 19.3866 -0.752842
19.7189 19.0199 -1.32598
17.3397 17.6067 -1.4004
17.4218 17.1172 -2.0507
19.5265 18.784 -1.84038
19.5274 18.9981 -1.05479
17.55 17.444 -1.39267
18.761 19.8835 -0.804642
17.6038 17.8055 -1.33941
18.3615 17.7888 -1.59756
19.7209 19.014 -1.31754
19.3128 19.326 -0.718674
19.0507 18.8016 -0.749233
18.7823 18.1172 -1.82598
19.4365 19.1389 -0.752956
18.9339 19.0921 -1.4402
19.8874 19.2568 -1.15528
18.0263 17.4621 -1.99047
18.8996 18.2164 -1.68284
17.7591 19.2745 -1.52372
18.7925 18.9338 -0.721802
19.2494 19.0081 -0.716797
16.6979 18.1104 -1.60182
17.6795 17.8298 -1.3105
18.0672 19.161 -1.82348
18.9136 18.7622 -1.40307
18.8965 18.5001 -0.949894
18.5835 19.2323 -0.757629
19.9081 19.3865 -0.99754
16.9981 17.3137 -1.86406
18.5985 18.3902 -0.796127
19.059 19.7908 -1.50607
18.9562 18.793 -1.30836
19.1671 18.5236 -1.3285
20 19.4911 -1.04792
19.1369 18.9894 -0.728348
17.4487 18.9426 -1.05138
19.8928 19.1819 -1.34557
18.0881 18.9982 -0.835056
17.7546 17.323 -1.80929
19.7014 19.2956 -0.888271
20.1351 19.7468 -1.72715
18.2409 17.7053 -1.49304
19.5538 19.1848 -0.834698
18.7561 18.1474 -1.44601
18.2527 18.454 -0.813019
19.7247 18.9522 -1.55552
19.9996 19.9465 -1.78963
16.8616 17.7467 -1.60353
18.2226 17.6638 -2.0047
19.0154 20.0536 -0.813683
18.6194 19.4764 -1.6788
17.0204 18.554 -1.45491
17.4687 17.122 -1.78635
19.311 20.4775 -1.26239
19.2932 18.5485 -1.64473
17.7364 17.2924 -1.59597
18.8315 18.149 -1.74646
18.7914 19.8586 -0.802605
18.6747 18.033 -1.66504
18.149 17.5632 -1.74847
18.1689 17.5874 -1.82866
19.2422 19.4512 -1.51342
18.3093 18.4001 -0.812977
18.7549 19.6523 -1.68655
16.8966 17.4779 -2.09399
18.8043 18.6994 -0.733234
18.2047 17.7987 -1.30098
18.6438 18.0318 -1.99691
18.1548 18.7784 -1.67604
19.4634 19.698 -0.773407
19.2 19.5013 -0.725483
18.8968 18.4982 -0.987537
19.1023 19.2433 -0.716179
19.573 18.8077 -1.64373
18.2999 17.9391 -1.09303
19.2397 18.5042 -1.69756
17.4486 17.5934 -1.38956
19.0845 19.2817 -0.711502
19.0267 18.9743 -0.711941
19.3964 18.6482 -1.74369
19.1271 18.4472 -1.46824
17.1858 17.8588 -1.40211
18.7766 19.5309 -1.65364
18.6177 20.0116 -1.51483
20.1549 19.4461 -1.43936
17.3918 18.9164 -1.22375
19.4466 19.2852 -0.726593
18.0003 17.5491 -1.76294
19.6003 20.2592 -1.29211
19.6014 18.8633 -1.99582
18.5571 17.9573 -2.0729
18.7864 18.7258 -0.733891
18.6099 17.9852 -1.89075
17.6366 17.4393 -1.38885
19.598 19.8101 -0.79314
17.3948 17.1018 -1.73823
19.4016 18.6491 -1.698
17.8403 19.2498 -1.60774
18.2024 19.3145 -1.58828
18.9922 19.894 -0.792698
17.0647 17.4095 -1.70842
17.8979 18.7538 -0.89027
19.3869 18.9189 -0.903896
19.6327 18.8959 -1.94477
18.0985 17.5341 -2.23965
18.7515 19.3901 -0.765999
20.0405 19.1847 -2.09789
19.8972 20.0368 -1.63947
18.4442 18.3481 -0.810715
18.8378 19.1916 -0.738655
18.8079 19.6132 -0.758636
18.7477 19.7151 -0.781166
19.8505 19.3251 -1.0459
18.5417 18.9418 -0.736732
18.9749 18.4462 -1.20849
19.7318 18.952 -1.65193
18.9224 19.9567 -1.51352
19.7334 19.4222 -1.18248
19.1255 18.6441 -1.24346
18.8595 18.1832 -1.74815
18.7417 18.2416 -1.26457
17.1413 17.628 -1.46452
19.4384 18.7346 -1.44686
20.0743 19.5091 -1.15237
16.8352 17.6932 -2.27547
18.6978 18.2306 -1.30953
18.5899 17.9462 -1.99058
18.3513 18.8826 -0.758656
18.0209 19.4023 -1.55066
19.0047 19.1573 -0.710434
18.1095 17.7048 -1.34925
19.1091 18.8361 -0.773834
19.2457 18.4987 -1.74164
20.1526 19.388 -1.64571
17.9026 17.4227 -1.71088
16.838 17.9887 -1.54393
19.6038 18.9767 -1.23399
18.329 18.0155 -1.01687
17.2214 17.3934 -1.57466
17.4586 17.8094 -1.31948
18.1972 18.3975 -0.841301
19.4443 18.9934 -0.942978
17.6388 17.7368 -1.34112
18.0517 17.7773 -1.18753
18.7923 18.4377 -0.876347
19.7964 19.3376 -1.16214
18.144 17.8934 -1.04949
19.8798 19.412 -0.910149
17.8548 17.2672 -2.22869
19.7595 19.2433 -1.18766
19.8239 19.0676 -1.41139
17.5805 17.1953 -2.13548
18.3133 17.7843 -1.47977
17.7391 17.207 -2.03989
19.9496 19.2484 -1.29425
19.7621 18.9433 -2.14742
17.3821 17.5797 -1.42329
18.2667 18.113 -0.91655
19.8245 20.1084 -1.4286
19.8117 20.092 -1.35253
18.0443 18.6429 -0.836357
19.5434 18.9339 -1.23535
17.689 17.6588 -1.3309
18.8213 18.5512 -0.789619
19.8256 20.0995 -1.39875
19.6641 19.2375 -1.19572
18.497 17.8939 -1.59502
18.8135 19.9548 -1.7174
18.945 19.1951 -0.733311
16.6666 17.7704 -1.82021
17.5162 17.1315 -1.88309
19.5964 18.8576 -1.33942
18.8503 18.956 -0.737823
19.9854 19.5338 -1.09819
18.3593 19.2613 -0.776707
18.0176 18.5979 -0.860317
19.1363 18.979 -1.36362
19.1372 19.7184 -1.51723
18.5844 19.0926 -0.740036
19.746 19.0622 -1.24237
17.9404 17.5528 -1.34694
18.483 18.8945 -0.750591
18.7001 19.4751 -0.76226
19.7193 18.9866 -1.73262
17.7342 17.2183 -1.89673
18.1887 18.7658 -1.69792
17.1773 17.2946 -1.7443
19.7872 19.1588 -1.15881
17.9378 17.5613 -1.30983
19.6933 19.2499 -0.889168
19.734 19.0235 -1.35632
19.1843 18.7165 -1.2511
19.5426 18.8598 -1.28584
19.9182 19.4484 -0.975094
19.692 18.9384 -1.50135
18.7221 18.0947 -1.45844
16.6329 18.0499 -1.68822
19.7473 20.264 -1.8038
18.3143 17.7391 -1.93697
17.9459 18.592 -0.891548
18.4918 19.0845 -1.55519
19.7102 19.0211 -1.31257
19.5025 18.7516 -1.69372
18.3359 17.7621 -2.04382
18.1637 18.3477 -0.8456
19.0425 19.4398 -0.72707
20.0065 19.4355 -1.08553
17.4465 17.6472 -1.37976
19.8082 19.3815 -0.880806
18.4272 17.7897 -1.61762
18.931 18.9709 -0.728149
18.6676 18.8017 -1.40221
19.5003 19.4452 -0.734577
20.1877 19.5764 -1.92267
20.0764 19.2275 -2.06085
18.9348 19.7826 -1.72231
18.9856 18.5445 -1.04493
17.4694 17.1064 -1.98714
17.6354 17.1925 -1.74944
17.4827 17.4549 -2.21178
18.371 18.1057 -0.912701
17.8776 19.3852 -1.58952
20.0883 19.2456 -1.84371
19.1805 18.4857 -1.44798
19.8834 19.0855 -1.69793
19.5164 19.4626 -1.23137
18.7968 18.8454 -0.712502
16.9966 18.3947 -1.41192
19.9976 19.8799 -1.54027
16.8023 17.6453 -1.79334
19.7858 19.1677 -1.17454
18.5401 19.1444 -0.751068
18.1177 17.9163 -1.01552
18.0988 17.5564 -1.64722
18.916 20.0607 -1.5618
19.795 19.2607 -1.18486
19.2755 19.3181 -1.3801
18.2924 18.4019 -0.826805
16.993 17.7574 -1.50861
19.1023 19.6997 -0.754318
19.037 19.697 -1.53785
19.7635 18.972 -1.63857
17.7076 17.2133 -1.95155
19.8484 19.1298 -1.34839
17.8463 17.2794 -2.20819
19.039 18.3498 -1.8411
17.0965 18.1984 -1.39685
19.0419 20.0862 -0.818588
19.1541 18.964 -1.3851
17.8249 17.6301 -1.31712
18.8002 19.4932 -0.743698
18.8598 18.1807 -1.69208
19.8828 19.214 -1.24622
20.0179 19.4865 -1.07344
19.6469 19.2153 -0.864315
19.1944 19.2937 -0.713203
18.3448 18.6979 -0.765999
17.5499 17.269 -1.48083
19.7873 19.1165 -1.24773
16.8417 17.9507 -1.54042
18.9903 19.7346 -1.54398
19.3097 18.5745 -1.71084
18.0735 17.4868 -2.1198
18.0836 17.5413 -1.85601
18.3913 19.1275 -1.45081
18.9024 19.0004 -0.718422
20.0568 19.3402 -1.38836
17.2435 17.301 -1.69492
18.7344 18.0663 -1.64313
17.305 18.621 -1.21845
19.261 18.5431 -1.54999
18.404 18.8059 -1.59242
17.0419 18.6721 -1.35187
19.3025 19.8932 -0.780773
19.9147 19.996 -1.50135
19.1398 18.9016 -0.744659
18.6313 18.0074 -1.49828
18.4453 19.5283 -0.782791
19.6307 18.9265 -1.36559
19.7086 19.3134 -1.20212
19.4582 19.6119 -0.755699
17.3954 17.6978 -1.3801
18.9021 19.8409 -0.78981
18.0048 17.7823 -1.16654
19.8827 19.0507 -1.91962
19.076 19.4215 -0.728695
19.3445 19.0479 -0.761166
20.0168 19.179 -2.08269
18.9477 19.3012 -0.736595
19.3497 18.6025 -1.69889
17.8967 17.5847 -1.27794
18.431 18.3814 -0.801796
20.1144 19.4221 -1.38325
18.9923 18.4885 -1.14683
20.1872 19.5808 -1.59798
19.4635 18.7203 -1.86598
19.0899 20.188 -0.848915
18.838 19.4405 -0.741524
18.7752 18.1107 -1.79988
19.8584 19.5558 -0.939484
18.2887 17.8773 -1.24338
19.9745 19.3162 -1.24007
18.5968 19.5001 -1.67656
19.2932 19.1394 -0.712524
19.6838 19.2403 -0.923573
19.9765 19.1492 -1.90723
20.2013 19.489 -1.58559
19.2643 20.0182 -0.82357
18.203 18.4449 -0.847214
18.7972 18.1129 -1.64268
19.0096 18.4907 -1.19059
18.5505 17.9408 -1.99926
17.8081 17.297 -1.88161
19.0842 18.8 -0.788082
18.4382 17.8902 -1.14565
17.254 18.7531 -1.23975
18.876 19.0709 -0.734394
18.1389 18.7415 -0.805977
18.8929 18.7787 -1.40299
18.969 19.0841 -1.39921
18.7043 18.0938 -1.43781
18.7925 19.54 -0.75808
17.0892 17.2945 -1.7934
19.7944 19.1917 -1.19743
18.4114 19.8323 -1.70261
18.7018 18.5957 -0.752338
18.923 20.0609 -1.57423
18.3076 17.7295 -1.89977
18.1149 19.1838 -0.801609
20.0523 19.205 -1.98558
19.5997 18.8358 -1.73772
17.8597 19.3764 -1.55785
18.3823 17.7672 -1.83
18.0461 17.4768 -1.89807
19.5351 19.4466 -1.24009
17.5506 18.8616 -1.027
17.2097 17.3632 -1.59697
18.8937 18.8958 -0.735146
18.0412 18.8971 -0.837685
17.089 17.2591 -1.80167
19.6381 18.9315 -1.39768
18.9352 19.2971 -0.720196
17.6211 17.2605 -1.51763
18.3016 18.4927 -0.804428
19.2503 20.4021 -1.10056
19.4714 20.4741 -1.80049
18.4117 17.7967 -1.88695
19.4008 18.65 -1.63366
19.3663 19.1357 -1.2067
19.5991 18.8476 -1.65272
18.2159 18.3 -0.844135
19.9635 19.3818 -1.08774
19.5567 19.0282 -2.13362
18.3475 19.4406 -0.793549
19.8986 20.0618 -1.74952
18.2582 18.6557 -0.795521
19.3458 18.6047 -1.64858
19.4617 18.7833 -1.38673
17.9299 17.4005 -1.8447
18.7854 18.0965 -1.6922
19.0274 18.989 -0.725143
19.2731 18.5639 -1.98153
18.5222 18.4767 -0.775932
19.4219 20.4545 -1.33194
18.9455 19.1954 -0.714436
19.8095 20.1226 -1.45654
17.9387 17.3541 -2.08921
18.734 18.4784 -0.877884
18.036 17.5233 -1.75184
17.8534 19.2458 -1.62125
17.1093 17.6538 -1.48241
17.5885 17.8279 -1.3336
17.3812 17.3454 -1.73099
17.5459 17.2916 -2.16309
18.9061 18.4314 -1.13261
19.3406 19.2356 -0.726761
18.4393 19.6632 -0.806919
18.6385 18.8387 -0.729141
19.4747 18.7656 -2.0287
20.0258 19.7717 -1.13232
18.4348 19.2334 -0.767208
19.1435 19.1939 -0.70953
19.4639 18.7304 -1.62267
17.1479 18.6341 -1.34953
19.4911 19.2842 -0.740295
18.0613 18.7127 -1.73758
17.8644 17.4021 -1.73833
19.9426 19.4409 -0.993439
18.947 18.3351 -1.34558
18.3764 18.0609 -1.01273
19.5476 19.1117 -0.849655
18.3755 17.8681 -1.35996
16.6018 17.8536 -1.86508
18.7688 18.1152 -1.57483
18.1411 18.4801 -0.847862
19.2279 18.9576 -0.756645
18.3673 17.7857 -1.72871
19.1481 19.0833 -1.43031
18.7483 18.1483 -1.39873
19.741 19.334 -0.974403
18.0897 19.205 -0.825851
18.2883 18.0158 -0.968452
20.1737 19.4093 -1.61338
19.3302 19.2054 -0.711723
17.2315 17.3685 -1.56619
18.8456 18.2048 -1.48802
19.25 19.3514 -0.727531
16.9916 17.8391 -1.49289
19.8662 20.0175 -1.19022
17.3021 17.5922 -1.44764
17.0918 18.5368 -1.38121
18.92 18.2428 -1.69735
19.5306 19.5961 -0.78109
17.4123 17.2072 -1.64386
17.084 17.9469 -1.43562
19.0462 19.8789 -0.776192
19.0072 18.3314 -1.9957
18.1538 17.5997 -1.69225
19.0348 20.0359 -0.81353
19.0931 19.3834 -0.717636
17.4557 18.9665 -1.17469
16.7449 17.7898 -1.73947
17.0397 17.4285 -1.69429
17.7536 17.2453 -1.89498
18.697 18.0318 -1.8469
20.0063 19.4547 -1.93135
17.7967 18.8005 -0.910667
17.5267 17.8218 -1.37558
18.4273 17.8668 -1.45805
19.6783 18.9095 -1.59972
18.9407 18.7388 -0.744415
19.2427 19.1866 -0.704807
19.1039 18.8743 -1.24332
18.345 18.1378 -0.898315
19.9774 19.1597 -1.84817
19.7847 18.9807 -2.19093
19.4074 19.3946 -1.32716
17.7249 17.2161 -2.00539
19.7828 18.965 -2.09498
18.2623 18.8976 -0.772152
19.5363 19.8543 -0.797962
17.0972 18.3379 -1.43538
20.1074 19.2466 -1.94218
18.3515 18.2578 -0.891159
19.8115 19.0651 -1.88596
19.7502 18.9536 -2.04644
17.1369 17.6375 -1.48161
19.2037 18.4896 -1.59871
19.9401 19.9315 -1.30482
17.1533 18.094 -1.38067
19.2809 18.5464 -1.60463
17.9648 19.413 -1.50887
18.7457 18.9525 -0.73518
20.1084 19.347 -1.93011
17.4937 17.1522 -1.69667
19.4973 19.4969 -1.24168
18.3934 18.7469 -0.754955
18.8877 19.6928 -0.767212
17.2961 17.8107 -1.36992
18.2527 19.4316 -0.810745
18.3587 17.7743 -1.69926
20.1581 19.4277 -1.53551
20.0405 19.4391 -1.91647
19.3804 19.8248 -0.727718
19.4831 19.5025 -0.747204
19.1535 18.4273 -1.74201
19.813 19.0492 -1.84749
18.5014 17.983 -1.34114
19.336 19.9314 -0.809406
19.9057 19.5115 -0.93116
18.532 19.2819 -1.59851
19.2988 19.3388 -1.47699
18.301 19.1911 -1.59101
18.1019 17.5454 -1.89979
18.5305 17.9516 -1.24005
19.7843 19.1049 -1.93942
18.5964 19.3822 -0.764759
18.191 17.6444 -1.60227
18.2633 19.1907 -1.72329
18.8502 18.7552 -0.733173
18.7256 19.5844 -0.765026
18.1084 17.8542 -1.05196
19.5645 19.7079 -0.779308
17.9485 19.0504 -1.78524
19.8479 19.0573 -1.8944
20.1018 19.2549 -2.14658
17.4003 18.8501 -1.15632
18.0965 18.5105 -0.852539
19.9104 19.5829 -1.10822
19.5105 18.7924 -1.49213
19.1668 18.4397 -1.67245
18.6907 18.8966 -0.720345
17.9926 17.4087 -2.0565
17.2553 17.9714 -1.36545
19.5054 19.2576 -0.739254
19.1138 18.4795 -1.33478
19.9355 19.9998 -1.75664
18.524 17.9225 -1.15825
19.0879 19.4999 -0.735256
18.6961 18.0529 -2.03674
18.5909 19.726 -1.68513
20.0257 19.819 -1.32176
17.9074 17.3921 -1.79729
18.5314 18.4796 -0.765278
17.7937 17.4805 -1.31438
20.0086 19.3261 -1.29512
18.3319 19.224 -1.48046
18.3063 17.7263 -1.85441
19.5527 18.8063 -1.98704
19.8182 20.0683 -1.28088
18.9882 18.3642 -1.31613
18.7614 19.6106 -1.66649
17.4388 17.2064 -1.59898
18.8644 18.2291 -1.97046
18.5929 19.627 -1.6816
18.3478 17.8673 -1.18511
19.1854 19.6356 -1.48479
19.6804 19.2879 -0.850578
19.2441 18.5068 -1.79597
19.4701 19.537 -1.24689
18.2379 17.6632 -1.87284
16.689 18.3126 -1.56225
18.344 19.1672 -0.770355
19.5958 18.9518 -1.24825
19.2634 19.3183 -0.727646
18.934 18.6777 -0.855854
18.0097 17.4987 -2.02731
19.6953 18.9461 -1.5981
18.9452 18.497 -1.04472
18.3388 18.5455 -0.793201
18.2805 17.7004 -1.6577
19.639 19.6902 -0.779488
18.0415 17.8314 -1.09155
17.9571 17.6762 -1.19657
19.5825 19.1879 -0.871117
18.9794 18.6945 -0.958607
17.1895 18.0522 -1.37076
19.3482 18.6008 -1.79012
17.6799 19.2074 -1.54755
18.1348 17.5298 -2.09706
17.4258 18.239 -1.35475
18.2576 18.4975 -0.825253
18.0285 18.8711 -1.74176
19.0108 18.7462 -0.786945
19.6226 19.0196 -1.91772
18.834 19.6982 -0.766541
18.9911 18.5787 -0.989468
18.2967 19.0932 -0.773964
18.4859 17.8869 -1.25091
19.3633 19.2411 -1.40549
19.3488 20.4758 -1.3024
18.579 19.388 -1.66056
18.3634 17.8245 -1.44802
18.6045 18.8504 -1.37293
19.6964 18.9566 -1.89089
20.0299 19.1834 -1.75029
17.401 17.6015 -1.39196
18.4416 18.937 -0.754929
19.0908 18.4337 -1.39526
17.2987 17.7979 -1.38795
17.0901 18.0976 -1.43202
20.1014 19.4312 -1.97763
17.6804 17.2884 -2.20351
18.0657 17.5503 -1.57644
16.8419 18.328 -1.49954
18.9333 19.9924 -0.818142
18.3789 18.5377 -0.798843
17.1901 18.1497 -1.36329
19.7616 19.0433 -1.71594
19.3556 18.6302 -1.90224
19.2083 19.5948 -1.39907
18.4342 17.8098 -1.77783
17.4964 17.3452 -1.44961
18.7447 19.1398 -0.736641
18.364 17.7963 -1.94378
18.6503 19.0054 -1.5343
17.5484 17.3882 -1.42489
18.087 17.8305 -1.2013
19.1759 18.4785 -1.90481
18.2062 17.6861 -1.48895
18.9287 19.2213 -0.746964
18.7382 18.4677 -0.794151
19.7646 18.9857 -2.21951
19.3936 19.0319 -0.834015
19.9077 19.3365 -1.09526
19.3905 19.9776 -0.823154
18.1002 18.7232 -1.73067
18.2971 17.8943 -1.14371
17.9027 18.5265 -1.13168
18.192 17.6377 -1.94492
17.5493 17.1975 -1.60126
19.1326 18.9175 -0.717632
16.5952 18.0789 -1.74573
18.5523 18.3827 -0.783501
19.0956 20.0651 -0.807526
19.0819 18.3992 -1.50528
17.705 17.642 -1.29478
19.2382 19.6921 -0.750454
18.9773 18.6034 -0.918587
19.9297 19.9265 -1.25777
18.7367 18.8751 -0.718407
17.7656 18.9085 -2.09512
18.1141 18.7565 -0.805626
16.9673 17.3669 -1.80256
19.0134 18.3452 -1.48893
18.8977 20.0446 -0.835606
19.688 18.928 -2.00076
18.1042 18.7851 -0.809143
19.5528 18.8054 -1.63808
18.7984 19.1924 -0.728394
20.2035 19.5562 -1.60223
16.6278 17.7855 -1.87567
19.6276 19.5608 -0.759422
17.3014 17.384 -1.66556
19.2102 19.3474 -1.53155
18.2506 17.6937 -1.95247
18.7991 18.7661 -0.717896
17.6 17.5062 -1.34984
20.1038 19.4091 -1.95815
18.968 19.3688 -1.6573
19.1502 18.5887 -1.21372
18.9396 19.3918 -0.727928
17.4912 17.1315 -1.73668
18.7452 18.9445 -0.719643
18.9631 19.0564 -0.727577
18.644 19.2875 -0.742466
18.398 17.8104 -2.0309
19.4764 18.7357 -1.90054
17.3332 18.0876 -1.34998
17.9158 17.4492 -1.53326
18.1894 17.8991 -1.04689
18.2896 17.7046 -1.69014
19.2018 18.4877 -1.493
18.3454 17.8084 -1.25492
17.147 17.3922 -1.62925
19.7908 19.368 -0.862469
18.5248 17.9632 -1.36252
18.8897 19.3056 -0.739445
17.7857 17.3571 -1.45028
18.8228 18.6196 -0.770573
18.9269 19.8 -0.787254
17.7653 17.2251 -2.14292
20.0244 19.1596 -2.10309
20.1476 19.4002 -1.54184
18.3885 18.0707 -1.04066
18.9034 19.9577 -1.4881
18.9952 18.7972 -1.37886
18.6821 18.0515 -1.9375
19.3619 19.3664 -0.714596
19.1433 18.9561 -1.35447
18.2322 17.9017 -1.02907
18.9339 18.2469 -1.74583
18.6294 19.4799 -1.66788
17.5502 17.496 -1.38576
19.3481 20.5214 -1.42896
20.1878 19.5045 -1.55114
17.9954 17.7043 -1.16392
19.8997 19.9335 -1.241
17.9 18.9733 -1.79557
17.2732 17.1762 -1.75484
19.6411 19.5949 -0.78363
19.2572 18.5844 -1.42244
17.5019 17.5435 -1.36072
18.957 19.9622 -0.804474
18.188 19.5679 -1.59827
18.6531 19.0096 -0.728966
18.457 19.1457 -1.34768
19.3363 19.2953 -1.4383
18.2517 19.6595 -1.61946
18.5925 18.8371 -1.50917
19.7952 19.4716 -0.850933
19.3038 18.5848 -1.89836
18.7902 19.9411 -1.72797
17.3541 17.4067 -1.48166
18.7738 19.4557 -0.753849
19.5262 19.0681 -0.903191
19.0966 19.9153 -0.801548
18.937 18.3966 -1.25042
18.6353 18.06 -1.35688
18.9986 19.6394 -1.58317
17.3443 17.9889 -1.39039
17.6492 19.0916 -0.948231
19.5856 19.6611 -0.770042
18.8365 18.3497 -1.28133
17.7924 17.4315 -1.39769
18.9673 19.3698 -0.716503
16.6602 17.8981 -1.79457
18.4237 18.5842 -0.771152
19.2709 20.0701 -0.815426
20.1637 19.4802 -1.53395
19.4661 18.8965 -1.23608
18.0853 19.2253 -1.8466
19.5584 19.5486 -0.775608
19.2588 19.1656 -0.706364
17.5796 17.6886 -1.3429
19.7562 20.1243 -1.21571
19.4168 19.7301 -0.770321
19.7472 18.9948 -1.79335
19.4539 19.7087 -0.767632
17.8001 17.2876 -1.84845
18.0883 18.7041 -1.69522
17.4044 17.7606 -1.35147
17.8803 17.3703 -1.84488
17.4055 17.0957 -1.8416
18.8102 19.1859 -0.717709
16.8609 18.4351 -1.48397
18.4158 19.1331 -1.60359
17.0551 18.094 -1.41795
19.9932 19.4583 -1.00069
18.3953 18.755 -1.69927
20.1858 19.6349 -1.78967
17.2992 17.9051 -1.38214
18.701 19.7951 -1.69387
19.5034 18.782 -1.44839
18.6485 18.4105 -0.801975
17.2947 17.4443 -1.48908
19.25 19.4461 -0.730892
18.7437 18.7537 -0.723763
18.3108 17.7516 -1.64402
17.2915 18.911 -1.4072
17.8836 17.3125 -2.17183
17.3968 17.9422 -1.38624
19.6511 19.6603 -0.779156
19.0766 19.0246 -0.702145
18.535 19.3901 -0.76915
17.8784 19.2611 -0.862766
18.2502 19.5533 -0.82819
19.6755 18.9264 -1.4467
18.5795 18.3356 -0.835312
18.1411 17.9737 -0.990498
18.4318 18.4802 -0.798431
19.4389 18.738 -1.39858
18.4225 18.8043 -1.61381
19.4474 19.4006 -1.29526
18.0252 17.5058 -1.60937
17.2251 17.8789 -1.39162
18.6941 19.5443 -1.66427
18.7242 18.7695 -0.966793
18.6557 19.0968 -1.52647
18.3723 18.1318 -0.868099
18.6396 18.8194 -1.562
19.1776 20.0074 -0.824848
20.0095 19.4705 -1.89776
16.7102 17.8844 -1.70387
17.5453 17.6431 -1.34409
19.0716 18.4678 -1.26696
17.4724 17.2013 -1.72149
16.682 17.8501 -1.82192
17.8399 18.9553 -0.875271
19.4957 19.3377 -0.731792
18.5365 18.0089 -1.29274
18.6393 19.802 -1.70612
18.2941 17.9287 -1.15182
18.9228 19.0314 -0.711086
18.2908 19.5289 -0.816422
20.2159 19.5246 -1.80636
17.2691 17.6156 -1.47727
18.2664 17.9543 -1.16766
20.0651 19.3612 -1.85332
18.2056 18.0717 -0.92865
18.5782 17.9385 -1.74718
19.036 19.6403 -0.755283
18.5568 17.9102 -1.59261
19.2966 18.9823 -0.788761
20.1118 19.3849 -1.48801
18.052 19.1158 -0.818928
19.8982 19.552 -1.00507
18.9391 18.8416 -0.742287
19.8001 19.2382 -1.15449
20.1799 19.4146 -1.64809
17.9432 18.9412 -1.75044
19.9432 19.8676 -1.15726
18.3748 17.7571 -1.53671
19.0885 18.8029 -1.30515
18.8961 18.9504 -0.72736
19.6897 19.4032 -0.766209
17.915 17.3904 -1.62338
17.5508 17.6778 -1.31816
17.9553 17.5702 -1.38312
18.9545 18.9481 -0.713837
19.1982 18.4748 -1.71891
19.0614 18.3848 -1.99593
18.5053 17.8933 -1.93592
18.2903 17.8387 -1.35111
18.9836 19.9318 -1.552
18.7881 18.715 -1.14647
19.5437 18.8009 -1.94979
20.2023 19.4406 -1.69046
20.0481 19.5961 -1.14252
19.7926 20.2136 -1.76921
16.892 17.8055 -1.54872
17.386 17.1757 -1.69677
19.2516 20.4882 -1.22311
18.0616 17.5022 -1.6817
19.5469 19.3972 -0.749405
18.3975 18.1866 -0.892582
18.8883 19.5675 -1.65253
19.9062 19.1795 -1.39717
19.0553 20.0527 -0.824501
19.1093 19.387 -0.723175
17.9004 17.3662 -1.89661
18.7122 18.7506 -1.40212
18.6103 19.3123 -0.745552
17.5484 18.9852 -1.00064
17.9297 17.3938 -1.64251
19.0786 19.4671 -1.67813
16.6832 17.8452 -1.8186
18.9345 18.2625 -1.93586
18.5052 19.348 -0.771156
19.4323 19.7398 -0.779613
19.4011 18.6441 -1.84752
17.5114 17.9464 -1.33568
18.9825 19.7408 -1.52046
19.2331 18.5926 -1.30007
18.5994 18.6916 -0.740376
18.6442 19.9929 -1.59076
18.9473 18.5401 -0.994507
18.5101 17.9566 -1.38773
20.124 19.5897 -1.26281
18.5961 17.9607 -1.59676
17.3993 17.4537 -1.45179
19.2943 18.5987 -2.03196
19.7235 19.6234 -0.832165
19.9187 19.1681 -1.85297
20.0428 19.456 -1.92632
19.4408 18.8034 -1.24722
18.2458 19.4337 -1.62397
19.5966 19.3253 -0.775608
18.5956 19.9986 -1.52929
18.0732 17.6789 -1.17287
19.463 18.7268 -1.89649
19.4745 18.892 -1.20228
17.2339 17.4353 -1.53095
16.6888 18.1883 -1.59321
18.3318 18.0355 -1.03961
18.2202 18.0762 -0.952904
19.3023 18.7324 -1.21086
19.8531 19.4375 -0.887577
18.3691 18.3412 -0.815659
19.146 20.1259 -0.862782
18.2277 19.5595 -1.63158
19.9812 19.1923 -1.70285
18.1095 19.2643 -0.8172
18.0956 17.5127 -1.99855
19.5943 19.6003 -1.16526
17.0288 18.4859 -1.44733
18.6567 18.0236 -1.6313
19.145 19.1468 -0.703796
18.603 17.9759 -1.83588
19.1237 19.3812 -1.61738
19.8285 19.0542 -1.84378
19.2031 19.2471 -0.709358
18.5564 17.9522 -1.94669
18.9465 18.2955 -2.04125
18.4636 17.9695 -1.17795
18.0612 19.0054 -0.807541
18.9395 18.794 -0.741558
19.14 19.6764 -0.762787
17.5196 18.0685 -1.32053
17.8376 18.9019 -0.89835
17.9946 17.4488 -1.65198
19.0339 19.8438 -0.795887
18.9501 18.6374 -0.845852
19.0814 18.9394 -0.729317
18.735 18.1022 -1.49597
19.9438 19.1781 -1.49335
19.6954 18.9791 -1.39869
18.8118 18.3284 -1.26435
17.3499 17.8603 -1.37437
19.3223 19.7788 -1.30136
17.8746 17.2891 -2.26976
17.3068 17.2177 -2.17627
18.2297 19.0855 -0.781059
19.4525 19.4369 -0.734833
17.2057 18.5547 -1.35686
17.9828 17.3857 -2.14996
18.4706 17.8361 -1.71168
16.8625 18.3563 -1.46655
18.4045 18.8371 -0.751091
17.1427 18.7049 -1.29135
19.9652 19.4381 -1.02274
18.3443 18.4983 -0.800827
18.8991 19.6481 -0.757725
18.4681 19.8524 -1.58139
18.0499 18.7408 -1.6978
19.4501 19.0924 -0.836491
18.034 19.1246 -1.81177
19.7407 19.3375 -0.850586
18.78 18.1104 -1.59813
18.1648 17.7521 -1.35596
20.1495 19.3961 -1.59478
19.6628 19.715 -0.849186
17.6329 18.9535 -1.03031
19.2721 18.6151 -1.3189
19.7184 19.3458 -1.2263
19.3359 18.5895 -1.74634
19.9247 19.1981 -1.36161
17.5124 18.9867 -1.01575
19.1967 20.0855 -0.841454
16.9402 18.3866 -1.4401
19.0535 19.7948 -1.52331
19.3641 18.6912 -1.38651
20.0707 19.484 -1.1124
18.6983 18.0556 -1.54662
19.4237 19.2498 -0.737671
17.4617 17.1008 -1.93802
16.6372 18.0127 -1.7152
18.5297 17.9298 -1.19897
18.2433 17.9507 -0.995289
18.1543 17.6414 -1.49405
19.2606 19.0659 -0.721748
17.3516 18.839 -1.13277
17.1226 17.773 -1.47218
18.1137 18.6656 -0.815155
17.165 17.4112 -1.5747
18.2896 19.0296 -0.777859
19.3829 19.9776 -0.816528
18.1187 17.5447 -2.15585
19.4555 19.4576 -1.3152
18.616 19.9015 -1.64229
16.9592 17.8377 -1.51152
17.3813 18.1288 -1.35939
18.1451 17.8446 -1.06114
18.8015 18.1244 -1.68674
19.9523 19.1449 -2.1431
17.237 17.6884 -1.43025
18.2052 17.9988 -0.989838
19.1527 19.6413 -0.744911
19.4827 19.4445 -1.31322
19.9811 19.2641 -1.34229
18.3526 17.857 -1.32282
16.6695 17.7736 -2.14365
19.3379 20.1022 -0.84848
18.8963 18.4959 -1.02457
18.0823 17.5118 -1.95098
19.9942 19.9333 -1.74139
18.9062 18.6433 -0.79007
18.7513 18.557 -0.756008
19.5113 20.4219 -1.68597
20.0003 19.2385 -1.70387
18.833 19.0794 -1.46603
17.9462 17.6363 -1.23114
19.862 19.0274 -2.19857
17.5 17.7002 -1.33886
17.9352 18.7874 -0.850754
19.4073 18.7305 -1.34684
19.2104 19.4332 -1.50372
19.1444 19.8953 -0.789635
18.6014 19.3686 -1.65195
16.8767 17.4808 -2.06998
18.5116 17.9208 -1.5336
18.7265 19.1821 -0.733341
19.0813 18.3548 -1.69308
17.3957 17.3442 -1.63422
17.386 18.8543 -1.10415
17.4364 17.8994 -1.35358
18.9296 19.8571 -0.774246
18.2032 17.9995 -0.954117
19.0306 19.0997 -0.729652
18.9905 19.0779 -0.709087
18.7295 18.6917 -0.745071
19.252 18.9913 -0.744331
18.8965 19.1293 -0.734779
17.4979 19.0695 -1.55444
18.2586 18.7523 -0.776993
18.5293 17.9642 -1.40001
19.794 19.0718 -1.35865
20.0381 19.3952 -1.19416
18.7627 19.7369 -1.69411
18.9444 19.1548 -1.4486
18.0726 17.5115 -1.66935
18.1876 19.2438 -0.802738
19.7627 19.3782 -0.836143
18.7856 18.8988 -0.746841
19.0336 19.842 -1.52605
19.9302 19.9774 -1.45306
18.0604 19.0404 -0.829872
18.2186 19.2045 -0.79607
20.0465 19.8965 -1.7174
19.1977 19.6617 -1.44096
19.2035 20.1425 -0.832451
20.001 19.8112 -1.25162
17.3784 18.9011 -1.38846
19.7513 19.0323 -1.39868
20.0982 19.3456 -1.89367
18.1884 18.999 -0.786224
17.8251 19.0039 -1.77617
17.6596 17.2768 -1.96029
16.7197 18.293 -1.58
19.161 18.8875 -0.776779
19.9372 20.0498 -1.77095
19.0682 19.3982 -0.719059
18.2399 18.7866 -1.65146
17.9802 17.6043 -1.26525
16.5313 18.0838 -1.86203
18.392 18.5973 -0.767822
18.5122 19.1573 -0.752708
18.429 18.1471 -0.913307
19.912 19.1554 -1.80853
16.9451 17.5522 -1.66538
20.029 19.7239 -1.2161
18.8627 18.3734 -1.25235
19.363 18.6286 -1.69015
20.0417 19.5233 -1.10548
19.1978 19.645 -1.40648
19.9924 19.9788 -1.80633
19.6292 18.9095 -1.35518
18.3841 18.0872 -0.948639
18.8938 18.4209 -1.24937
19.554 18.9794 -1.13626
18.4007 18.4036 -0.796444
17.3103 17.2731 -2.24028
19.5459 19.7558 -0.779102
19.076 18.3966 -2.00358
19.4494 19.3509 -0.734505
16.9435 17.9985 -1.47036
18.1117 17.6391 -1.43622
17.8674 19.1442 -0.88163
19.524 18.7878 -1.4659
17.9688 19.174 -1.83197
17.9569 17.4945 -1.48882
20.0871 19.499 -1.19299
20.0074 19.1743 -2.05149
18.2837 17.7099 -1.74032
20.0637 19.7898 -1.70852
18.6089 19.5939 -1.67636
18.7425 18.575 -0.746628
17.7006 17.2931 -1.87369
18.2858 17.7246 -2.07093
18.7976 19.9923 -0.819553
18.0486 17.7421 -1.19097
19.4567 19.0277 -0.927574
18.1308 17.5829 -1.90533
18.5791 19.9193 -1.61507
17.0745 17.8311 -1.47909
19.7593 18.9937 -1.8432
19.955 19.2309 -1.39032
18.4516 18.8977 -0.759453
18.396 18.2893 -0.831074
17.0441 18.3556 -1.40691
20.1713 19.4625 -1.49102
19.381 18.7058 -1.39519
18.3956 17.8914 -1.15406
17.2753 18.282 -1.36836
17.0587 18.4602 -1.42579
18.2453 18.3922 -0.848709
18.2957 18.0389 -0.935715
19.2363 19.899 -0.805946
17.546 17.4096 -1.41332
18.5795 17.9101 -1.66898
19.3818 19.0667 -0.756107
19.6961 19.0771 -1.19853
18.4817 18.5189 -0.771297
18.2366 17.6656 -1.57986
17.5389 17.8761 -1.29538
16.6667 17.9489 -1.71586
17.6089 17.5683 -1.32004
18.1501 17.6988 -1.94616
19.9111 19.1493 -1.6683
17.3596 18.9094 -1.30671
17.0448 17.4539 -1.65289
19.0623 19.6111 -0.748383
18.4986 17.8818 -1.89595
17.2503 17.4016 -1.53278
18.0886 18.6563 -0.87579
20.1585 19.5537 -1.40148
18.8592 19.9092 -1.55814
19.1007 18.4195 -1.71366
19.7693 20.1622 -1.53733
19.4996 20.4607 -1.7984
17.475 17.1129 -2.03269
18.5734 19.9152 -1.6008
19.3534 18.6298 -1.98661
18.0848 18.6304 -0.839886
19.901 19.0571 -2.13491
17.9452 17.437 -1.74006
19.6172 18.9422 -1.97304
20.1513 19.4199 -1.512
18.5466 17.929 -1.54394
20.0858 19.201 -2.09496
19.8348 18.993 -2.148
16.7587 17.6426 -2.0936
18.2248 17.6916 -1.55709
18.056 18.8471 -1.73562
17.2708 18.7402 -1.2115
18.6463 18.5418 -0.74276
17.7199 19.07 -0.912857
18.9443 19.4515 -0.73896
19.6798 19.528 -1.21027
17.5706 17.2781 -1.47575
19.3068 19.3525 -1.34504
19.6621 19.2121 -0.889416
18.6053 19.6375 -1.66909
18.1866 18.9174 -1.73929
18.289 17.7159 -1.54338
17.5916 17.8176 -1.27721
19.5052 19.4629 -0.775974
17.2452 17.6651 -1.41788
19.2799 19.3454 -0.731728
20.1303 19.4475 -1.35022
17.9778 17.5042 -1.50397
18.846 19.2971 -0.745743
19.994 19.4435 -1.0386
19.8159 20.1419 -1.94531
17.1558 18.5987 -1.32654
17.0479 18.5963 -1.40142
18.9453 19.48 -0.73558
19.5479 18.9906 -1.09464
18.6456 18.0106 -1.59013
19.1426 19.4892 -0.739372
17.2498 17.165 -2.04331
16.8085 18.4921 -1.50993
18.9965 18.8365 -0.728836
20.0813 19.3488 -1.44505
18.591 18.8748 -0.733143
20.1344 19.2917 -2.04997
17.9143 17.4211 -1.82555
20.0995 19.2434 -1.8969
20.0807 19.4224 -1.94156
18.9515 19.6707 -0.762375
17.6456 17.489 -1.35341
19.9321 19.2521 -1.24277
17.6022 17.3948 -1.41162
17.6223 17.6364 -1.34669
16.7137 17.624 -1.90856
17.9012 17.5202 -1.38311
19.9727 19.9727 -1.754
19.4431 19.939 -0.806141
16.7107 17.6508 -1.84101
19.9975 19.1473 -1.99625
18.4437 18.9512 -1.60265
19.343 18.6381 -1.44313
17.1507 17.3011 -1.73724
18.9579 18.2808 -1.64753
19.9227 19.5753 -1.10794
17.6417 17.2497 -1.54384
19.7786 19.3797 -1.20211
18.4215 19.1349 -1.4699
17.4339 17.344 -1.46457
19.0149 18.8077 -0.71027
17.3414 18.7438 -1.16992
19.4477 18.7887 -1.28639
18.1894 18.8669 -1.68452
18.2878 18.9003 -0.771549
19.207 18.4882 -1.79417
19.2159 20.0319 -0.819118
20.0061 19.2238 -1.90961
19.5937 18.8431 -1.89697
17.8997 17.4462 -1.4958
18.9847 19.7528 -0.776543
20.1622 19.4777 -1.44458
17.9842 18.9114 -1.77339
18.4044 18.9935 -0.760067
17.7421 17.3355 -1.4992
17.0566 17.6001 -1.53395
20.0312 19.2547 -1.55512
17.8702 18.5126 -1.0658
19.8786 19.0239 -2.22855
19.4371 19.0558 -0.797794
19.7282 19.268 -1.17038
19.327 18.7404 -1.19741
19.1899 19.5976 -0.738342
18.6953 18.4828 -0.750053
18.6384 18.6817 -0.743591
18.7483 18.8531 -0.715492
17.9565 19.3263 -0.866581
19.0665 18.3841 -2.02491
18.8289 19.9993 -1.58448
17.0879 17.6844 -1.48782
18.8838 19.051 -0.717167
19.0458 19.2581 -0.726788
17.924 18.9707 -1.75521
20.0507 19.2461 -1.69615
19.49 19.6814 -0.776268
19.4003 18.7964 -1.23577
19.8008 19.1149 -1.2816
18.9922 19.1458 -0.736366
20.0208 19.8349 -1.4837
17.2136 18.0192 -1.36084
18.1275 19.1027 -1.83699
16.5909 17.8592 -1.90623
18.5646 19.2578 -1.6234
18.1976 18.4784 -0.871719
18.5039 17.9374 -1.19323
19.5335 18.7832 -1.89501
18.6107 19.7961 -1.70231
16.7704 18.0761 -1.56987
17.8043 17.2661 -2.04718
18.9429 18.2787 -1.95748
17.8564 19.2813 -0.913128
19.1702 19.7705 -0.784153
16.7166 18.3443 -1.54784
19.8394 19.0572 -1.55141
19.2587 18.9905 -0.883488
19.1401 18.5769 -2.15028
19.5674 18.8201 -1.73167
20.1068 19.5081 -1.24239
19.4145 18.6735 -1.68497
19.7523 19.3665 -1.16402
19.9435 19.1886 -1.6903
20.0002 19.1847 -1.74793
18.3398 18.2867 -0.83522
19.489 19.1326 -0.803291
18.9408 18.6521 -0.808968
18.6451 18.7979 -0.72831
19.0098 19.3413 -0.71711
19.7949 20.1483 -1.58111
18.4794 17.8597 -1.85121
16.8392 18.1606 -1.50365
18.343 19.63 -1.6746
19.155 18.4805 -1.39182
18.4761 19.2077 -1.64544
17.2961 17.9037 -1.36084
17.2311 17.9843 -1.38364
18.993 19.0411 -0.707081
18.3571 17.812 -1.27603
19.0282 19.3719 -1.6609
18.247 18.0394 -0.9422
17.3242 17.222 -1.70923
19.5051 18.7697 -2.02233
19.1029 18.4032 -1.55092
19.7289 20.2725 -1.79288
18.9113 18.7 -0.722977
19.0573 19.1367 -0.706581
18.822 19.3743 -0.73019
19.4862 18.7492 -1.54733
17.5355 17.1534 -1.7472
18.7812 18.6538 -1.37978
18.4567 17.8441 -1.75225
19.8426 19.3463 -0.953316
17.757 19.0493 -0.934883
18.1434 18.5547 -0.851425
18.6533 18.8357 -1.42642
19.1604 19.0597 -0.707012
19.2444 19.2779 -1.45739
18.5796 17.9307 -1.8558
18.9836 18.2925 -1.69799
19.2338 19.3255 -1.54287
19.226 18.5129 -1.87808
19.4915 19.1594 -0.875256
18.5551 19.0488 -1.53162
18.4891 17.9483 -1.30343
17.8072 17.416 -1.40582
19.1429 18.4832 -1.35371
17.1303 18.1879 -1.38289
18.6846 19.9417 -0.831463
19.33 18.6129 -1.94888
17.1963 17.2425 -1.73223
17.5545 17.1608 -1.79544
19.0118 18.3287 -1.79802
18.3192 17.7399 -2.03526
19.1947 19.0393 -0.716854
18.361 19.7414 -1.70882
19.4554 19.7491 -1.282
16.9894 18.2536 -1.43053
20.0878 19.3033 -1.59909
18.5475 19.8435 -1.65226
18.2095 17.6521 -2.044
18.839 19.0733 -1.47815
18.5897 19.0396 -0.741074
18.6403 18.5923 -0.749592
19.2495 20.4783 -1.19451
18.3596 19.0621 -0.76339
18.8382 18.676 -0.734711
18.2534 17.695 -2.07289
19.7507 19.3201 -0.881744
18.9775 18.5995 -0.954617
18.9339 18.2601 -1.60279
17.9403 18.986 -0.846008
19.3467 18.6522 -1.38654
18.7574 19.9752 -1.69391
17.2034 17.2134 -1.74155
19.5399 18.8016 -1.50443
16.8556 17.6594 -2.27406
19.8664 19.0173 -2.22642
19.8279 19.1027 -1.91933
19.842 19.0864 -1.45323
18.4829 19.7498 -0.824039
17.0308 17.307 -2.04877
17.9285 19.2076 -0.861153
18.2059 17.6463 -1.99454
18.9266 18.2498 -1.8449
19.2002 19.734 -0.759449
19.1918 19.2109 -0.704521
18.2122 19.564 -1.62195
18.8786 18.6115 -0.813034
18.3779 18.4458 -0.80769
18.159 19.3579 -1.58373
20.0989 19.7267 -1.59808
19.4896 19.0688 -0.846684
18.5474 17.9051 -1.82439
19.0506 20.0123 -0.811485
18.4411 19.0371 -0.748688
19.1347 20.0726 -0.815052
19.1463 18.9834 -0.719143
19.2323 20.2035 -0.906376
17.4317 17.2438 -1.69997
18.6841 18.1617 -1.25025
18.4993 19.192 -1.59003
17.9813 19.3712 -0.853439
18.206 19.4596 -1.6422
20.0615 19.2451 -1.64171
18.6566 18.0452 -1.4949
20.0265 19.1951 -1.78799
18.1876 19.3811 -1.4483
17.5471 17.1432 -1.94242
20.1283 19.2456 -1.96058
17.1856 17.8598 -1.42465
19.4784 18.7807 -1.39945
18.307 19.6289 -1.61842
18.4302 19.0978 -1.43559
17.2395 18.755 -1.20916
18.0825 17.5119 -1.69285
19.8883 19.1891 -1.30008
19.3965 19.2878 -0.727161
17.98 17.3564 -2.20542
18.8694 18.1984 -1.92724
19.281 18.9944 -0.754593
17.849 19.0335 -0.885803
17.4889 17.3794 -1.44123
19.6536 18.9202 -1.66274
19.6501 18.9588 -1.98788
19.2874 19.0288 -0.858486
17.8524 17.5397 -1.29481
18.8512 19.7276 -0.765644
18.9044 18.3935 -1.15972
18.424 17.8132 -1.9141
20.2069 19.4621 -1.89949
19.9055 19.5644 -1.05004
18.6922 18.0431 -1.89468
16.6818 18.2385 -1.5886
19.421 18.6641 -1.89408
18.1671 17.7612 -1.38501
18.8985 18.8797 -0.715839
19.9041 19.3302 -1.13967
20.0972 19.5987 -1.23921
18.7034 18.1968 -1.26933
18.6046 18.9466 -0.728806
17.6633 17.3011 -2.19409
18.317 17.9759 -1.1209
18.9766 18.9262 -0.728458
19.0355 18.5164 -1.08088
18.6349 19.1488 -0.754211
18.9954 19.3799 -1.65522
19.174 19.3055 -1.56241
17.6008 19.1086 -1.5072
18.4463 18.5373 -0.763901
18.1615 17.5817 -1.80479
18.685 18.6419 -0.741425
20.0335 19.1945 -2.2452
18.4833 18.2899 -0.81369
18.2395 17.6796 -1.85204
19.9858 19.5615 -2.10393
19.6451 19.4388 -0.761196
19.892 19.1434 -1.44378
19.1363 19.0777 -0.707886
18.3389 19.2066 -1.44289
19.1084 18.8644 -1.32541
19.3945 19.4492 -0.737667
17.592 17.8294 -1.30843
18.2754 17.9658 -1.00642
20.0901 19.3414 -1.84975
18.5791 17.9637 -1.50661
18.3335 19.6255 -1.64812
18.6318 19.321 -0.760468
18.9004 19.7655 -0.775997
18.7194 18.0773 -1.6313
19.2381 19.3074 -1.37944
19.8136 19.3234 -0.985077
17.1401 18.0539 -1.42429
18.6111 18.0712 -1.33603
17.4859 17.8936 -1.34494
19.6012 19.4934 -1.2234
19.4541 19.1994 -0.731781
16.7606 18.4241 -1.50966
18.1694 17.6138 -1.75391
18.6942 18.8842 -0.725922
18.7435 19.5449 -0.755951
18.2483 19.3061 -0.793343
17.4372 17.4287 -1.43895
20.0818 19.5903 -1.20328
17.8842 17.3188 -2.09367
17.4774 17.4775 -1.3975
19.2469 18.5367 -1.9935
19.5844 18.9099 -1.2889
17.5922 17.255 -1.49508
17.6263 17.2037 -1.61947
20.0079 19.2808 -1.39621
18.2124 17.692 -1.5462
19.9117 19.0697 -2.12811
19.2496 18.6597 -1.20903
18.9567 19.7486 -1.5434
17.8436 17.4725 -1.40061
18.7914 18.2716 -2.14876
18.4508 19.2169 -1.28489
18.747 18.0942 -1.94565
18.6329 19.7266 -0.789215
18.1128 17.6159 -2.23166
19.9386 19.9596 -1.39638
17.15 17.388 -2.23373
18.3933 18.1388 -0.949783
19.555 18.9437 -1.1397
18.3851 17.8263 -1.49147
19.9495 19.3368 -1.14231
17.3693 17.1107 -1.9901
18.4023 19.5358 -0.797241
17.9848 19.1825 -0.843758
19.177 18.4637 -1.64576
17.7847 19.2338 -1.69404
19.7302 19.2552 -0.900761
19.7107 18.9259 -2.03474
17.2721 18.0278 -1.35867
17.2478 17.5893 -1.4544
19.3495 19.4422 -1.46035
20.168 19.3811 -1.84536
18.0883 19.1326 -0.810528
17.2896 17.65 -1.41204
18.6959 19.0519 -0.746952
19.7739 19.317 -0.912346
17.2984 18.1931 -1.34803
17.7466 17.4934 -1.34156
19.2711 19.8337 -0.794132
16.8339 17.5363 -2.07477
17.0376 17.7901 -1.47861
17.7954 19.2934 -1.59103
18.4858 19.5023 -0.778873
18.8095 18.9879 -1.48066
18.1444 18.9259 -0.792564
19.3939 19.0022 -0.891396
19.5035 18.8113 -1.33805
19.3474 18.7942 -1.21471
18.5558 19.2661 -1.60561
18.5288 17.9093 -1.95868
16.8473 17.7817 -1.59792
19.7124 20.2487 -1.76697
17.7076 17.3294 -1.47786
17.9394 17.4997 -1.44481
19.6597 19.0962 -1.19109
17.0773 17.394 -1.70991
20.1266 19.5002 -1.2568
17.2545 17.3325 -1.62372
16.9764 18.0787 -1.45654
18.3985 19.4065 -1.57639
19.1979 19.3455 -1.4842
19.1485 19.3064 -0.723434
18.6164 19.2124 -1.61607
18.6947 19.82 -0.800636
16.8042 17.5118 -1.81641
18.7162 18.4754 -0.843143
16.6037 17.8046 -1.89365
19.738 19.387 -1.18843
18.6013 20.0434 -1.5214
19.4381 19.3949 -1.33288
18.8279 18.2537 -1.31757
18.3899 18.9085 -1.64015
19.1089 18.7209 -0.773594
19.5425 19.8787 -0.846626
18.8635 19.2472 -0.711132
19.9326 19.1169 -1.57981
18.3078 19.494 -0.805462
18.0726 18.7259 -1.69073
17.8449 17.2961 -2.04412
18.5302 17.9006 -1.79108
18.9046 18.4471 -1.0859
17.701 19.063 -0.926655
19.9272 19.9915 -1.72007
20.073 19.3496 -1.41007
18.998 19.7934 -0.761433
16.7318 17.6859 -2.10641
18.181 18.7708 -1.69911
19.7287 20.2881 -1.95089
19.7113 19.0763 -1.23643
18.7388 18.0765 -1.64866
18.8809 19.8877 -1.57075
18.971 18.4969 -1.06666
19.7006 19.0179 -1.2869
18.1207 17.6371 -1.41642
18.5743 17.9627 -2.0329
17.0851 17.3879 -1.72953
17.99 17.4555 -1.84087
19.1371 18.8941 -1.35352
17.9023 19.3022 -0.864586
17.0852 17.4928 -1.57948
19.2964 19.7848 -0.780888
17.9956 17.4295 -1.99236
19.328 19.2667 -1.45801
19.4535 18.7805 -1.33928
18.5008 19.6031 -1.68787
19.4166 19.3659 -0.721519
19.5755 18.8095 -1.82519
19.853 19.085 -1.754
17.3265 17.8842 -1.35551
19.6075 18.9256 -1.33585
19.4391 20.4858 -1.79118
19.0298 18.5494 -1.0751
18.8062 19.0989 -0.720219
19.3305 18.5851 -1.55507
19.0891 18.4424 -1.34772
18.8174 18.6546 -0.973583
18.1402 19.2785 -0.816467
18.6205 18.7961 -1.66793
19.7604 19.3123 -1.02542
18.9064 18.4039 -1.19065
17.9297 17.4531 -1.50724
20.0994 19.345 -1.54514
19.8574 20.0592 -1.50398
19.1995 19.6127 -1.47253
18.3104 18.8338 -1.67501
17.9152 19.4019 -1.7008
19.411 18.6974 -1.5256
18.3626 19.1879 -0.770565
18.0284 18.9306 -0.829449
17.7424 17.5043 -1.3121
19.3919 19.3433 -0.716255
16.9508 17.8066 -1.50567
16.9488 18.5358 -1.45792
18.3625 18.7719 -1.65675
19.6875 20.1783 -1.26237
18.2365 18.786 -1.69165
17.9102 19.0953 -0.859482
18.8107 18.1307 -1.78525
17.0889 18.0228 -1.42239
17.9028 18.9547 -1.7627
18.1126 17.516 -2.0288
18.2923 17.8082 -2.1284
19.979 19.1079 -2.16416
19.3658 20.5052 -1.40525
16.5855 17.8907 -2.13161
18.5689 19.9054 -1.57984
19.6481 18.8996 -1.88857
19.2454 19.6456 -0.758377
19.5314 19.0869 -0.953575
19.4323 20.4431 -1.31282
19.0444 18.342 -1.64589
17.5331 17.691 -1.33674
18.7874 18.2116 -2.09703
19.9419 19.1898 -1.43584
17.7934 17.24 -2.14229
18.4452 19.2913 -0.767456
18.7081 18.2294 -1.26023
18.2372 17.6605 -1.6991
20.1938 19.4543 -1.64249
19.0265 18.7468 -1.35952
20.0555 19.2353 -1.83292
18.9968 19.3503 -1.6554
19.2373 19.5974 -1.43917
17.7038 17.2092 -2.00431
18.3497 19.2291 -0.769814
18.1515 18.0284 -0.969902
18.0769 17.7489 -1.15122
18.951 18.7033 -0.791084
19.9763 19.1841 -1.56378
20.0616 19.3786 -1.28497
18.7381 19.7758 -0.789665
18.3015 18.812 -0.774246
17.8843 17.3561 -1.75249
18.2474 17.9842 -0.994114
20.2244 19.5065 -1.74047
20.155 19.3501 -1.74611
19.557 18.9108 -1.24921
18.3411 17.8418 -1.24059
19.7536 19.0703 -1.2993
19.8986 19.0606 -1.5797
18.9819 19.9821 -0.815323
17.7794 17.4354 -1.36223
17.1083 17.7447 -1.44991
19.6286 19.0331 -1.20094
18.1264 17.5222 -2.05363
17.6953 17.3809 -1.36142
19.378 18.6396 -1.55608
18.9048 19.9988 -1.50629
18.5083 19.5444 -1.69274
18.2077 19.254 -1.72507
20.0405 19.9037 -1.74143
16.8815 18.2374 -1.46995
19.144 19.3406 -1.60079
19.2502 19.3432 -1.3896
19.2809 19.1801 -0.728077
19.6404 18.8669 -1.52935
17.6361 17.301 -1.45379
19.4785 18.7153 -1.77814
19.3138 18.5796 -1.73045
17.7528 18.9982 -0.901814
17.8577 17.3443 -1.83653
19.3773 18.6126 -1.70275
18.0288 19.2774 -1.88181
20.0415 19.1972 -2.05325
18.2838 18.3323 -0.844307
19.148 19.2842 -1.39654
19.8284 19.0373 -1.63007
19.2478 18.805 -1.26401
18.8962 18.7114 -0.72036
18.7979 19.5855 -1.66124
18.3967 18.2448 -0.835377
18.5246 18.2892 -0.849422
18.7406 19.4339 -0.757736
17.0968 17.2824 -1.76553
18.1322 17.5636 -1.94306
19.5255 18.7681 -1.74657
18.36 18.1332 -0.927536
18.8397 19.3737 -1.58211
18.7741 18.1038 -1.56981
19.1836 18.5888 -1.2129
17.3607 17.7925 -1.35723
19.3826 18.9998 -0.856461
19 18.6913 -0.842812
18.7838 19.1295 -1.49588
18.9906 18.4562 -2.15878
17.6652 19.209 -1.54479
18.447 18.991 -1.61106
18.3866 17.9621 -2.19279
17.3486 18.1573 -1.34524
19.2937 19.2405 -0.713772
19.4857 19.0092 -1.09243
19.3082 18.8455 -1.24904
18.9602 18.7724 -0.719078
18.151 18.7157 -1.65819
20.0594 19.8001 -1.72966
18.5787 18.5253 -0.747971
18.3884 19.5702 -0.799801
18.7026 19.9486 -1.6123
19.4396 18.9669 -0.909843
17.2457 17.8466 -1.39547
16.9067 17.4001 -1.97427
16.9957 17.4888 -1.67279
18.7884 18.5098 -0.846729
19.454 18.7006 -1.63829
18.5606 19.8203 -0.833332
18.598 18.9923 -0.733894
18.4906 19.043 -0.742546
18.6519 19.4911 -0.762306
18.0744 17.88 -1.05899
16.637 17.7494 -1.89362
19.2043 18.5341 -1.39258
19.2788 19.5416 -0.728462
17.99 18.6412 -0.88509
17.2792 18.8008 -1.19341
16.9769 17.8882 -1.48454
17.9445 17.4705 -1.602
18.259 17.7408 -1.495
19.9174 19.9775 -1.41128
19.9927 19.4651 -2.15775
18.9871 20.1033 -0.818985
18.4805 18.2261 -0.884453
17.8489 19.2724 -1.60413
17.1311 17.8772 -1.43505
20.0547 19.7678 -1.37167
18.8361 18.6081 -0.750885
19.7457 18.9796 -1.58563
19.6618 19.0798 -1.15657
19.9462 19.9681 -1.86429
19.113 20.0165 -0.816326
18.8918 18.8036 -0.713093
19.6478 20.2896 -1.45026
18.3951 17.802 -1.65081
18.2918 17.7053 -1.84907
18.7919 18.1244 -1.61209
18.7881 18.1999 -1.34826
17.1003 17.5069 -1.54939
17.645 17.3671 -1.41388
17.0994 17.5499 -1.53541
19.5537 18.8005 -1.69627
17.3742 18.3022 -1.34515
19.4756 18.6981 -1.64037
17.3466 17.4926 -1.45469
19.0216 18.3141 -1.66653
18.9608 18.276 -1.69375
17.6114 19.1015 -1.53656
18.8272 19.838 -0.795017
19.8839 19.3004 -1.05649
19.0965 18.3869 -1.60601
19.0689 18.3913 -1.47164
18.6684 19.2052 -1.57781
20.1471 19.498 -1.29636
18.0403 17.6983 -2.19913
18.913 18.5865 -0.878685
17.3105 17.1349 -1.9519
17.9896 19.4127 -1.54005
17.9313 19.3481 -1.65767
17.4912 18.9869 -1.05472
17.1748 18.2783 -1.40421
19.1017 18.3958 -1.89526
19.2042 18.578 -1.28875
20.0393 19.4964 -1.10215
18.8253 19.9607 -1.58867
18.704 19.1488 -0.736485
18.3408 17.9555 -1.10752
18.8029 20.0153 -0.841171
18.694 18.45 -0.801525
19.1607 20.245 -0.898884
19.8275 20.0721 -1.30679
17.0927 18.036 -1.41226
20.1537 19.4924 -1.38827
19.6882 18.9238 -1.75525
19.178 18.9713 -0.717838
17.3296 17.1127 -1.92587
19.0555 18.3616 -1.59224
18.2109 18.503 -0.811924
17.9665 17.7448 -1.17722
17.8862 19.0272 -0.859875
19.0143 18.7621 -1.36506
17.4066 18.0205 -1.32032
18.9916 18.7244 -1.28845
17.8121 17.3548 -1.75846
17.9957 18.9016 -1.74891
16.7584 18.4241 -1.5326
20.1736 19.3922 -1.8862
18.544 19.882 -1.73865
18.7532 18.0897 -1.74709
19.3033 18.7197 -1.27095
18.1284 19.1904 -0.810398
18.6398 18.7481 -0.736851
19.1021 18.4194 -1.55248
18.0465 17.6693 -1.35029
20.1717 19.493 -1.49825
19.7975 19.0425 -1.53698
19.4766 18.7484 -1.51267
19.187 18.459 -1.69087
17.8823 18.9936 -1.75953
17.4673 17.2934 -1.68135
19.2667 19.4887 -1.41218
18.8256 18.4146 -1.29441
18.752 18.7445 -0.978699
17.4756 17.9823 -1.31667
18.2421 18.4874 -0.806629
18.0499 17.5025 -1.64673
18.8446 18.8402 -0.715515
17.3784 18.9108 -1.33173
18.2236 17.6501 -2.04186
17.4447 17.6513 -1.35577
