-35.0163 -24.3044 -2.60624
-34.5819 -25.3368 -2.21692
-33.5861 -24.9232 -2.47501
-33.0013 -23.998 -2.63338
-35.2591 -25.7423 -2.36815
-34.3083 -25.5074 -2.99046
-34.9528 -26.0572 -2.84538
-35.2994 -26.0487 -2.46287
-35.7972 -25.7054 -2.51654
-33.7309 -25.0718 -2.8829
-34.1474 -24.6592 -2.26301
-33.3613 -24.8072 -2.77635
-35.4142 -26.0749 -2.89258
-35.3172 -24.6075 -2.18556
-33.997 -25.1718 -2.29269
-35.3543 -26.2523 -2.80724
-35.3534 -26.1422 -2.55149
-33.8097 -23.5036 -2.30475
-34.0809 -25.2616 -2.34317
-35.2536 -24.498 -2.05442
-33.1351 -24.3455 -2.28458
-35.6759 -26.167 -2.95301
-33.8107 -24.7794 -1.92392
-33.8619 -24.3557 -1.83628
-33.875 -25.1856 -2.54647
-35.0596 -24.2719 -2.58269
-34.5598 -24.6624 -1.8513
-35.1986 -24.549 -2.08676
-33.6631 -24.2162 -1.85751
-34.0073 -23.9928 -2.79082
-35.4303 -26.1062 -2.65566
-33.0195 -24.4397 -2.50762
-36.0094 -25.4198 -2.56976
-33.5134 -24.5678 -1.99978
-35.2528 -25.6598 -2.35387
-34.7235 -24.3752 -2.73721
-32.9112 -24.3433 -2.85563
-34.0074 -24.5436 -1.81899
-33.8627 -25.1141 -2.39546
-35.7504 -26.1046 -3.09747
-34.025 -25.2854 -2.46235
-35.3896 -25.4909 -2.3589
-33.8909 -23.7759 -2.27275
-34.9451 -25.4723 -2.27613
-33.7168 -24.5583 -1.84877
-35.2519 -26.0688 -2.4841
-33.0206 -24.0636 -2.49365
-33.4004 -24.475 -2.04844
-32.8954 -24.2381 -2.62356
-34.2017 -24.6653 -2.47976
-34.675 -24.7567 -2.72021
-33.6615 -24.5119 -1.85567
-33.2467 -24.6154 -2.93711
-35.2566 -26.2321 -2.76716
-33.8119 -25.148 -2.84209
-34.6047 -24.5577 -2.70652
-34.3761 -25.5809 -2.51374
-34.9446 -24.398 -1.92335
-35.2277 -24.5069 -2.06504
-33.0852 -24.552 -2.7924
-33.4425 -23.8076 -2.2535
-35.7046 -25.21 -2.41721
-34.5524 -24.8078 -1.85411
-35.0717 -26.1846 -3.13605
-35.3575 -25.9249 -2.43423
-33.7117 -24.9949 -2.40277
-35.961 -25.1517 -2.50612
-33.0078 -24.4796 -2.92997
-34.186 -24.4902 -1.8358
-34.6074 -25.7196 -2.44603
-36.136 -25.5519 -2.81544
-33.2741 -24.7384 -2.66702
-35.6144 -25.0542 -2.39708
-33.218 -23.8459 -2.43199
-33.3031 -24.1109 -2.15814
-33.3645 -24.4092 -2.04833
-34.0909 -25.3277 -2.99975
-33.4465 -24.8215 -2.54076
-32.9447 -24.3034 -2.84734
-33.7676 -23.7105 -2.20558
-32.956 -24.4407 -2.60305
-33.3272 -23.5258 -2.69349
-33.0149 -24.1622 -2.44216
-34.2458 -25.4287 -2.43413
-33.8634 -23.9545 -1.88016
-33.034 -24.5454 -3.02982
-32.9985 -24.425 -2.54657
-32.9808 -24.4277 -2.57888
-35.4639 -26.111 -2.68751
-33.4461 -24.8241 -3.00179
-34.4059 -25.6108 -2.59358
-33.4885 -24.862 -2.58942
-35.4631 -26.1935 -2.80627
-34.1849 -24.7315 -2.49276
-35.0707 -24.5053 -1.96297
-34.5072 -25.1082 -1.87888
-33.6416 -24.9712 -2.99456
-34.2184 -25.4071 -2.34681
-35.0253 -25.9307 -2.38327
-34.3998 -23.986 -1.90052
-35.0547 -26.0899 -2.59336
-34.4182 -25.2993 -1.95559
-34.0821 -25.32 -3.04082
-34.3067 -24.2113 -1.85007
-33.6842 -25.0287 -2.6926
-35.1729 -26.0998 -2.56347
-33.8027 -24.6065 -1.83952
-34.7015 -25.3737 -2.35814
-34.3193 -25.5345 -2.50519
-32.9678 -24.1129 -2.56281
-35.6032 -24.8068 -2.37906
-35.5983 -26.1395 -2.70416
-33.0516 -24.5057 -2.55037
-33.5521 -24.3558 -1.88274
-33.3272 -24.5316 -2.21698
-33.0666 -23.8702 -2.65532
-34.171 -25.3976 -3.04187
-33.8069 -24.7535 -1.89312
-34.4551 -25.6531 -2.5954
-33.8167 -25.1031 -3.04189
-35.1712 -26.2107 -2.75448
-34.2057 -24.7525 -2.57894
-35.2599 -25.5493 -2.37558
-33.7231 -25.0435 -2.43489
-35.1627 -24.4066 -2.64468
-33.0582 -24.4977 -2.69981
-33.3374 -24.705 -2.47897
-33.3089 -24.7 -2.49866
-34.7249 -24.325 -2.69461
-34.2152 -25.4673 -2.59919
-34.4796 -25.6092 -2.40828
-33.7751 -24.3287 -1.84491
-35.5089 -26.0625 -2.54248
-33.3873 -24.7779 -2.82869
-33.7612 -25.098 -2.55443
-34.9171 -26.009 -2.59658
-33.514 -23.5038 -2.44049
-33.4562 -24.6638 -2.25063
-34.4686 -24.5496 -2.50951
-34.4818 -24.5249 -2.53844
-34.7657 -24.4091 -2.83312
-34.7879 -24.279 -2.6735
-36.1326 -25.4102 -2.69374
-35.7468 -25.8503 -2.5561
-33.0389 -24.0781 -2.55739
-33.2011 -24.6114 -2.49339
-34.276 -24.68 -1.81974
-36.0092 -25.755 -3.06955
-35.3358 -24.4789 -2.89517
-34.0633 -24.6631 -1.82745
-35.2085 -25.7085 -2.35275
-36.01 -25.5602 -2.62989
-34.0856 -25.3683 -2.68048
-33.8844 -25.211 -2.83267
-35.4522 -25.7022 -2.40192
-34.511 -25.2546 -2.35991
-33.4462 -24.8412 -2.94582
-34.6062 -25.4719 -2.16413
-33.0602 -24.4106 -2.45091
-33.9735 -24.2163 -2.64907
-34.4741 -25.1953 -2.43363
-34.1368 -25.3028 -2.33413
-34.9584 -26.0845 -3.13582
-33.2525 -23.9024 -2.34674
-35.5099 -26.0037 -2.50055
-35.0409 -26.1518 -3.03725
-33.5405 -24.8914 -2.44278
-36.0168 -25.609 -2.66172
-33.5231 -24.2753 -2.33442
-35.8269 -25.7715 -2.57216
-34.7109 -24.41 -2.79852
-33.8987 -25.2033 -2.89867
-35.4056 -25.6084 -2.3807
-34.2897 -23.9839 -2.58851
-34.5978 -25.1783 -2.25981
-33.4718 -24.6914 -2.19455
-33.6843 -24.0656 -1.86792
-34.0976 -24.0526 -1.86148
-35.149 -26.1167 -2.59041
-34.2961 -25.3629 -2.29374
-33.9997 -24.2332 -2.56
-34.0513 -25.1217 -2.30545
-33.2171 -24.6775 -3.04684
-34.4301 -25.6012 -2.46896
-33.6689 -23.5751 -2.29042
-33.6092 -24.82 -2.25158
-33.9516 -24.3199 -1.83702
-33.4851 -23.5751 -2.38297
-35.5502 -25.4064 -2.3979
-34.544 -24.4492 -2.54855
-33.506 -24.6653 -2.20939
-33.1242 -24.0514 -2.36175
-35.0905 -26.1934 -3.09628
-33.0797 -23.8297 -2.8013
-33.457 -24.7966 -2.44704
-35.3279 -24.518 -2.11691
-35.897 -25.0966 -2.47993
-33.3784 -24.7373 -2.45977
-34.5927 -25.5393 -2.1103
-34.2578 -24.0599 -1.86539
-35.6003 -25.807 -2.46422
-33.9666 -24.5611 -1.81958
-34.3135 -24.5677 -1.82552
-34.6852 -25.0503 -2.28638
-34.7619 -25.7483 -2.29985
-34.6014 -25.7599 -2.94238
-35.9878 -25.7629 -2.75353
-35.6345 -26.218 -2.92015
-34.6142 -24.7189 -1.85931
-36.2062 -25.4521 -2.88154
-34.5777 -24.4095 -2.57142
-34.4965 -25.3571 -2.31463
-35.7061 -25.7087 -2.48492
-35.5038 -26.2525 -2.89859
-34.5197 -24.116 -1.88113
-34.0912 -25.3652 -2.88951
-34.2547 -24.6463 -2.45082
-33.9414 -25.2552 -2.791
-33.8221 -24.8995 -2.0494
-35.0936 -24.3569 -2.63655
-35.4929 -25.1659 -2.35348
-35.4031 -24.6534 -2.2072
-34.4876 -25.5706 -2.35994
-33.7124 -23.5572 -2.2822
-34.3882 -24.1888 -1.85993
-33.6845 -24.8641 -2.20037
-34.6711 -24.6969 -2.79637
-33.2975 -23.7109 -2.44714
-33.8514 -25.0068 -2.2459
-34.7101 -25.3885 -2.30126
-35.514 -25.3102 -2.37698
-33.8965 -24.9539 -2.16293
-35.6101 -26.2057 -2.99322
-33.7868 -25.1275 -2.69191
-35.6978 -25.504 -2.4516
-33.5526 -24.8235 -2.34291
-32.9201 -24.1223 -2.65062
-34.5936 -24.1798 -1.88326
-33.062 -24.2752 -2.34575
-35.3306 -24.5385 -2.09095
-33.9069 -24.9435 -1.99792
-35.797 -26.0153 -3.05657
-33.1901 -23.7624 -2.59177
-33.2674 -24.5422 -2.29778
-35.4732 -25.8242 -2.43505
-34.3295 -25.2444 -1.9253
-34.1482 -25.4215 -2.65051
-34.495 -25.6987 -2.69205
-33.4352 -24.7734 -2.42754
-34.2524 -24.2905 -2.59401
-34.2937 -23.9903 -2.56976
-33.2036 -24.6279 -2.71391
-33.3003 -24.7085 -2.53845
-34.9036 -25.869 -2.38732
-33.0403 -24.0736 -2.57708
-33.3698 -24.8101 -2.74844
-34.2634 -25.5054 -2.89462
-35.3839 -25.0604 -2.30352
-34.8199 -25.926 -2.80787
-33.7501 -24.4472 -1.83798
-34.9897 -25.767 -2.31175
-35.388 -24.6067 -2.17763
-33.6167 -24.1641 -1.86501
-35.7575 -25.7089 -2.50832
-35.3541 -26.2549 -2.94368
-33.3607 -24.7912 -2.6468
-34.4917 -24.6463 -1.84318
-34.3856 -23.8656 -1.91931
-34.6639 -24.557 -2.8058
-33.7775 -23.8236 -2.26105
-33.8017 -24.5 -1.8325
-35.6629 -24.7231 -2.38761
-35.5372 -25.9892 -2.50646
-32.9754 -24.4428 -2.5695
-34.8108 -25.9424 -2.89243
-34.2994 -24.4153 -1.83236
-33.0687 -23.9923 -2.49508
-34.3186 -25.1569 -1.95217
-33.7777 -23.7264 -2.15727
-34.1069 -24.7537 -2.3933
-33.0825 -24.4872 -2.71041
-32.9638 -24.3288 -2.80779
-32.9303 -24.0797 -2.8782
-35.9319 -25.9004 -2.86361
-34.3917 -25.6169 -2.85273
-34.8446 -25.9426 -2.93166
-33.6524 -24.6176 -1.89077
-34.2651 -24.3503 -1.83939
-35.6038 -26.0018 -2.5497
-34.0167 -24.8868 -2.37615
-34.4754 -25.2395 -1.92182
-35.0293 -25.7098 -2.31439
-33.7164 -24.1606 -2.49834
-35.1992 -24.3669 -2.47875
-34.336 -25.5589 -2.90392
-33.6485 -25.0085 -2.78842
-34.8104 -25.6521 -2.24168
-35.2003 -25.7474 -2.35524
-33.6911 -24.293 -1.85418
-35.6554 -25.6196 -2.44608
-35.0251 -24.2829 -2.42752
-34.9043 -25.0114 -1.99736
-32.9097 -24.3535 -2.64219
-34.6771 -24.4484 -2.78491
-33.7389 -24.6637 -1.87447
-35.9473 -25.1909 -2.50333
-33.8932 -24.1543 -2.43682
-35.7522 -26.057 -2.7975
-33.4288 -24.4085 -1.96646
-35.6852 -25.1435 -2.41417
-34.2607 -24.5166 -1.82523
-33.4116 -24.5198 -2.09069
-32.8952 -24.3662 -2.69296
-35.4522 -26.2506 -2.8475
-34.2256 -25.4888 -2.79468
-33.5577 -24.5684 -1.94009
-35.0566 -24.6612 -2.72606
-34.9722 -24.4972 -1.93214
-35.6168 -26.0726 -2.63505
-34.4578 -25.601 -2.44328
-34.8362 -25.6958 -2.2561
-34.9708 -26.1175 -3.21328
-33.6511 -25.007 -2.89246
-33.5348 -24.9206 -2.84662
-34.1465 -25.3725 -2.99091
-33.5755 -23.2934 -2.65738
-33.8539 -24.2054 -1.84863
-33.8504 -25.149 -2.94449
-34.9008 -24.8055 -1.93046
-34.8299 -24.9876 -1.9619
-34.4064 -24.955 -1.84792
-33.6507 -25.0135 -2.84399
-34.0659 -25.3415 -2.50612
-35.6209 -25.811 -2.48115
-33.456 -24.6847 -2.24981
-35.111 -25.8615 -2.35366
-33.7631 -24.9924 -2.3091
-35.4585 -24.6581 -2.21734
-35.0138 -26.1382 -3.10879
-35.0661 -25.6676 -2.30624
-35.1055 -26.069 -2.54623
-34.452 -25.0018 -1.85757
-34.7568 -24.4594 -2.83674
-34.6059 -25.7682 -2.90207
-33.7978 -25.0224 -2.52965
-34.5047 -24.4186 -1.84284
-33.1461 -24.6358 -3.0797
-33.8985 -24.7554 -1.83802
-33.7105 -24.8999 -2.24211
-34.1283 -24.782 -1.81999
-35.6777 -25.2951 -2.42369
-34.091 -24.2534 -2.62924
-34.5708 -25.7066 -3.07578
-34.1236 -24.6753 -2.32056
-34.3969 -24.4851 -2.53683
-35.7162 -26.0134 -3.21291
-34.5707 -24.9693 -1.87094
-35.298 -25.9469 -2.41398
-35.0712 -26.1529 -2.94699
-34.5744 -25.7291 -2.9777
-35.2565 -26.1896 -2.65215
-33.8504 -24.4584 -1.82883
-34.175 -24.37 -1.83412
-33.0855 -24.5221 -2.53144
-33.9868 -23.9316 -2.70576
-34.1704 -25.4023 -2.45412
-35.4503 -25.9996 -2.46533
-35.8671 -25.1369 -2.47297
-35.8014 -25.7606 -2.5497
-34.3979 -25.2701 -1.94805
-33.8215 -24.9994 -2.19983
-34.8645 -24.6543 -2.7639
-35.7494 -26.0939 -2.89117
-33.0243 -24.0969 -2.49735
-35.7799 -26.0277 -2.78431
-33.9813 -24.1416 -2.78403
-34.7904 -25.9157 -2.89552
-34.6334 -25.7762 -3.05475
-35.0454 -26.1428 -2.841
-35.2636 -24.5792 -2.10394
-34.0122 -24.7694 -1.81863
-33.7836 -23.7378 -2.12492
-35.3 -24.4567 -2.42697
-32.9009 -24.4237 -2.80909
-33.4148 -24.8379 -2.89518
-35.8039 -26.0399 -2.92985
-34.1571 -25.0415 -1.92709
-34.4891 -25.669 -2.5321
-33.6107 -24.1327 -1.94673
-35.0842 -26.1297 -2.8207
-33.8421 -24.0973 -2.37878
-33.3811 -24.4769 -2.07838
-34.5462 -24.5829 -1.83875
-33.8019 -23.8066 -2.17271
-34.5623 -25.7523 -2.84805
-33.0647 -24.0874 -2.41193
-33.1891 -24.6605 -2.98776
-35.0797 -24.3479 -2.66631
-34.774 -25.7228 -2.35885
-34.5511 -25.4509 -2.04043
-33.0968 -24.4104 -2.39434
-33.3662 -24.4896 -2.10432
-34.6926 -24.542 -2.82253
-34.1696 -23.781 -1.92748
-34.4548 -25.6184 -2.99954
-33.62 -24.9919 -2.7514
-33.2616 -24.677 -2.74023
-35.0549 -26.1363 -3.24643
-35.2608 -25.7567 -2.37256
-33.7142 -24.9089 -2.19968
-34.8913 -24.6462 -2.77256
-34.4572 -24.5261 -1.83625
-34.1562 -24.2775 -2.45935
-33.7154 -24.0169 -1.8738
-35.6116 -26.233 -2.93119
-34.4925 -25.6016 -2.4005
-33.3902 -23.7901 -2.32772
-35.4039 -26.0992 -2.5915
-35.5 -26.2019 -2.79676
-33.7737 -24.1591 -2.57001
-35.6604 -25.7628 -2.47977
-33.6821 -25.0268 -2.95646
-34.0169 -24.2635 -1.85238
-34.8007 -25.9489 -3.05396
-34.0752 -24.2393 -2.74961
-33.5813 -24.9239 -2.98946
-33.2884 -24.4873 -2.22913
-36.1748 -25.5152 -2.87449
-35.3654 -25.0281 -2.35702
-33.7854 -24.1023 -2.52275
-33.8189 -24.0105 -2.487
-33.7648 -23.9729 -1.86897
-35.602 -25.6515 -2.43961
-33.6444 -24.8415 -2.21723
-34.5385 -25.7266 -2.69746
-34.2981 -24.7458 -1.8269
-34.2792 -25.5342 -2.71922
-34.8935 -25.0326 -2.00871
-33.9261 -25.0666 -2.25281
-35.249 -26.2395 -2.80099
-33.9219 -25.1905 -2.40944
-35.1155 -26.2026 -2.99705
-33.254 -24.6805 -2.8846
-33.7746 -23.8189 -2.28123
-33.0438 -24.477 -2.54622
-33.0167 -24.5077 -2.75206
-32.9583 -24.4913 -2.83402
-34.1895 -24.0503 -2.61954
-33.2428 -24.6041 -2.4387
-33.3566 -24.6505 -2.34504
-34.4634 -25.6736 -2.7511
-34.0359 -24.8515 -2.3865
-34.8384 -25.963 -2.67963
-34.6199 -25.0493 -2.40738
-34.1518 -24.2393 -2.58693
-35.0204 -25.9861 -2.4691
-33.4613 -24.5139 -1.99848
-32.8655 -24.3542 -2.84487
-34.7341 -25.1735 -2.19109
-34.6091 -25.7413 -2.5051
-34.1142 -24.9861 -1.92902
-33.0965 -24.2126 -2.43393
-33.1865 -24.6294 -2.53191
-32.9719 -24.4661 -2.76047
-33.9793 -24.1985 -2.67437
-33.6107 -24.9653 -2.54248
-34.9738 -24.2718 -2.72177
-33.3466 -24.762 -2.59178
-33.1026 -24.5663 -2.63361
-33.9194 -25.2423 -2.64406
-33.0915 -24.4622 -2.4817
-35.11 -26.1564 -2.85934
-33.6455 -23.985 -2.23936
-34.8923 -24.8116 -2.8445
-35.1851 -26.2223 -2.87633
-35.2111 -24.5053 -2.09157
-34.9571 -26.0756 -3.19589
-33.8276 -24.9562 -2.10488
-33.1234 -24.5888 -2.80248
-35.406 -25.3942 -2.37302
-33.9003 -24.893 -1.94398
-33.89 -24.1041 -1.86499
-34.654 -24.3994 -2.68171
-34.1722 -25.3039 -2.25496
-33.9009 -25.1306 -2.38396
-34.9722 -26.0847 -3.09914
-35.3002 -25.7113 -2.37525
-34.4979 -25.2387 -1.90296
-35.7417 -25.149 -2.42669
-34.4986 -25.6931 -2.64753
-33.2946 -24.6538 -2.44074
-33.523 -24.2904 -1.91007
-34.4222 -25.6218 -2.21736
-34.9354 -26.0055 -2.57607
-34.6411 -25.6071 -2.27884
-35.2109 -24.4422 -2.57011
-33.1216 -24.5549 -2.50779
-34.7428 -24.893 -1.89361
-35.4609 -26.0566 -2.50456
-34.2534 -25.1359 -1.93297
-35.7545 -25.4576 -2.46017
-33.4186 -24.8307 -2.81064
-34.6484 -25.7177 -2.3904
-35.5572 -26.1586 -2.71568
-34.2908 -24.1851 -2.58055
-33.4633 -24.8541 -2.7014
-35.488 -26.2589 -2.93131
-34.4588 -25.6833 -2.77244
-34.1637 -25.0466 -1.89422
-34.8593 -25.4664 -2.25116
-34.0817 -24.2043 -2.49376
-34.1169 -25.3549 -3.03744
-34.2994 -24.4974 -1.82616
-33.141 -24.0102 -2.38151
-34.4126 -23.9035 -1.90836
-36.1893 -25.4529 -2.85061
-34.5053 -23.9403 -2.7269
-33.2419 -24.7097 -3.00621
-33.3099 -24.1323 -2.16142
-34.6528 -24.4057 -1.86271
-34.3496 -24.0867 -2.58232
-35.5578 -26.0977 -2.64203
-33.9423 -25.1743 -2.3803
-33.7071 -25.0107 -2.46312
-32.985 -24.493 -3.00138
-33.2924 -24.5458 -2.28681
-33.0473 -23.9926 -2.54397
-33.6929 -24.8567 -2.23182
-33.8703 -25.2006 -2.85025
-36.1939 -25.5361 -3.01542
-33.8058 -24.2519 -1.84744
-33.1587 -24.4937 -2.40313
-34.062 -24.1596 -1.84846
-33.604 -24.2584 -1.8671
-33.8262 -24.7958 -1.89514
-34.1288 -24.3099 -2.75024
-33.4035 -23.8582 -2.25637
-34.8474 -25.9195 -2.54475
-34.8226 -25.9693 -2.60857
-34.6512 -25.5656 -2.1388
-35.2106 -26.2391 -2.84637
-33.9875 -24.6695 -2.23819
-34.8519 -25.919 -2.75787
-34.6242 -24.8727 -2.75372
-34.7892 -24.588 -2.81436
-33.8124 -23.8445 -2.14684
-34.3042 -25.1927 -1.90781
-34.6185 -25.7867 -2.64268
-34.2141 -24.6269 -2.42119
-33.0991 -23.8478 -2.6423
-34.6398 -24.7976 -1.86549
-34.0549 -24.007 -1.86591
-34.1928 -25.0399 -1.87529
-34.6663 -25.2177 -2.31013
-33.2556 -23.7408 -2.41929
-33.6281 -24.8196 -2.21154
-33.1985 -24.6506 -2.90059
-33.7596 -24.5007 -1.84274
-35.5495 -24.6605 -2.27161
-33.3465 -24.7307 -2.53047
-35.5602 -25.5081 -2.40638
-33.5672 -24.7711 -2.25346
-34.346 -24.7094 -2.56833
-35.5463 -26.121 -2.68005
-35.0116 -26.094 -2.79305
-34.8136 -25.9244 -3.03667
-33.6031 -24.4577 -1.86239
-33.4894 -24.5711 -2.04663
-34.3592 -24.957 -1.84242
-33.5716 -24.9194 -2.49916
-35.6458 -25.5429 -2.43333
-33.578 -24.9325 -3.00294
-34.049 -25.3524 -2.79932
-34.1525 -24.4986 -1.8238
-34.6522 -25.0553 -1.90005
-35.4241 -26.2097 -2.82457
-33.3611 -24.7822 -2.59608
-34.2449 -24.6002 -2.41232
-35.087 -26.1737 -2.93131
-34.6969 -25.8159 -2.54133
-33.7541 -24.6506 -1.85236
-33.3987 -23.4908 -2.67792
-34.7096 -25.6871 -2.21146
-34.9984 -26.1336 -3.23366
-33.1097 -24.4465 -2.39925
-34.1008 -24.6557 -1.8162
-33.2627 -24.7057 -2.8424
-35.8045 -26.0458 -3.08977
-34.2457 -24.6278 -2.43494
-33.1675 -24.6866 -3.18445
-33.4064 -24.8051 -2.59843
-34.546 -24.5687 -2.60342
-34.8582 -24.2414 -2.68323
-34.7692 -25.8906 -2.79541
-35.1874 -24.4534 -2.01505
-33.8341 -25.1591 -2.57373
-33.1676 -24.4564 -2.35009
-33.6279 -24.9298 -3.07788
-33.3568 -23.7577 -2.36043
-34.1858 -24.2249 -2.59519
-34.2216 -24.2668 -2.74347
-34.319 -25.455 -2.31257
-34.5131 -25.6877 -2.945
-35.032 -24.4537 -2.74853
-34.7249 -25.8358 -2.5512
-33.9893 -25.3031 -2.79087
-32.9911 -24.1121 -3.15987
-33.9828 -23.9272 -2.71973
-34.9082 -24.4323 -1.9229
-33.2738 -24.3487 -2.09992
-33.0017 -24.5443 -3.1886
-32.9718 -23.9832 -2.78954
-34.7234 -25.8864 -2.68505
-35.1588 -26.2097 -2.79729
-35.4241 -24.5442 -2.39154
-34.7612 -24.664 -1.8847
-33.6061 -24.8679 -2.34032
-35.684 -25.0523 -2.42977
-34.5487 -24.8265 -2.71664
-33.4518 -24.8579 -2.59175
-34.2392 -24.6959 -1.82337
-33.4141 -24.8423 -2.84171
-33.4062 -23.8954 -2.24018
-35.7713 -25.5091 -2.47682
-33.7858 -24.5914 -1.87491
-33.4156 -24.854 -2.75083
-34.5201 -24.9222 -1.85987
-33.412 -24.7976 -2.53786
-32.9254 -24.3579 -2.60628
-34.741 -25.8663 -3.15114
-33.2764 -24.7427 -2.95148
-35.22 -25.5676 -2.34576
-34.4087 -24.4688 -1.83859
-34.7561 -25.8991 -2.94473
-33.0901 -24.23 -2.40323
-33.5123 -24.3621 -1.89945
-33.6239 -24.9967 -2.90184
-36.1089 -25.4412 -2.67914
-33.1985 -24.6469 -2.79861
-34.1196 -24.664 -2.29261
-34.6254 -24.2667 -1.87404
-35.6906 -26.1367 -2.83898
-35.0225 -26.1012 -2.75347
-34.3065 -25.5447 -2.8931
-33.3074 -24.7618 -2.93472
-32.9647 -24.291 -2.49079
-34.8712 -24.527 -2.79905
-35.7554 -24.9743 -2.41351
-33.6058 -24.6196 -1.94853
-35.9025 -25.6037 -2.55367
-33.0572 -24.3558 -2.3949
-35.8728 -25.921 -2.77313
-33.3545 -24.5304 -2.18966
-36.1216 -25.6231 -3.03598
-34.1383 -25.3556 -2.43695
-33.3917 -23.6942 -2.38288
-34.2375 -25.0896 -1.8722
-33.961 -24.3584 -1.83704
-35.1513 -26.0589 -2.49534
-34.6213 -25.7875 -2.97608
-34.5024 -25.6995 -2.84809
-34.5126 -23.9699 -1.93061
-33.261 -24.7459 -3.05616
-36.0234 -25.7781 -2.90226
-34.1395 -24.2389 -2.55568
-33.9053 -25.1529 -2.40549
-32.8808 -24.2191 -2.69113
-35.7296 -26.038 -2.66888
-32.875 -24.2149 -2.74454
-34.7287 -25.8976 -2.95679
-35.2149 -26.2431 -2.94608
-34.1655 -24.608 -2.27686
-35.6392 -24.8634 -2.38636
-33.9577 -24.1555 -1.84705
-34.1799 -24.7701 -2.57066
-33.8355 -24.3998 -1.8401
-35.4498 -26.1656 -2.6623
-34.7459 -25.8336 -3.1914
-33.7556 -25.0972 -2.59464
-33.3493 -23.4863 -2.78506
-35.1186 -24.512 -2.76783
-35.7219 -26.1187 -2.93385
-35.2993 -24.5679 -2.10966
-34.1107 -24.312 -1.83791
-34.3923 -25.1351 -1.86927
-34.8669 -24.7487 -2.7471
-33.4292 -24.7425 -2.90792
-33.9077 -25.2044 -2.49788
-33.0393 -23.9856 -2.59642
-35.8569 -25.4065 -2.49161
-35.3091 -26.2163 -2.70218
-34.4085 -24.4698 -2.53661
-34.5671 -24.2575 -1.86628
-34.6158 -24.4069 -1.86171
-33.4586 -24.5486 -2.05127
-33.6211 -24.5593 -1.86807
-34.0608 -24.7529 -1.81565
-35.9296 -25.7753 -2.6779
-34.2102 -24.8171 -1.82724
-33.8591 -24.9038 -1.99182
-34.7727 -25.9414 -3.0096
-32.987 -23.9645 -2.78433
-33.0456 -24.5405 -2.84547
-35.1168 -26.2094 -2.95351
-33.0183 -23.932 -2.92445
-33.8689 -24.852 -1.90182
-34.7644 -25.8901 -2.59538
-33.9994 -25.2861 -2.92765
-35.6053 -25.201 -2.39401
-34.6734 -24.7161 -2.7544
-34.9553 -26.0782 -3.10259
-33.9685 -24.4587 -1.82035
-33.3131 -23.763 -2.38496
-34.3437 -25.5746 -2.74684
-35.0172 -24.5196 -1.94324
-33.7705 -25.0252 -2.49609
-33.7038 -25.0428 -2.94469
-34.3034 -25.0512 -1.85332
-34.8486 -25.8005 -2.33633
-34.1018 -24.6072 -1.83015
-33.8899 -25.2167 -2.74305
-35.483 -26.2156 -2.82364
-33.587 -24.6021 -2.0269
-35.1006 -25.4828 -2.2901
-35.5092 -25.1413 -2.3928
-33.9035 -24.0598 -1.87663
-33.8882 -24.9437 -2.02969
-35.1059 -26.1863 -2.73166
-35.2218 -24.5457 -2.05823
-34.113 -25.3909 -2.89155
-33.6571 -25.0155 -2.74008
-33.627 -24.9673 -2.49812
-35.668 -26.1516 -2.82916
-35.8574 -25.7564 -2.59658
-34.9911 -25.6421 -2.28843
-35.2726 -24.5616 -2.13417
-35.1227 -26.1349 -2.61629
-33.3083 -23.9184 -2.29462
-35.7098 -25.4077 -2.44303
-34.5998 -25.7552 -2.99387
-34.4564 -24.5251 -2.76139
-34.7839 -25.7097 -2.35745
-35.3507 -26.2011 -2.65067
-34.2774 -24.0031 -1.88783
-34.6895 -25.2225 -2.30699
-34.2163 -25.4503 -2.93603
-35.1058 -25.6157 -2.30353
-35.1091 -25.7062 -2.34466
-33.9963 -24.7932 -2.19964
-32.9537 -24.5023 -3.12621
-33.4996 -24.3047 -2.34018
-33.4554 -24.8154 -2.49218
-32.8742 -24.2992 -2.73891
-35.4091 -26.0592 -2.61292
-33.2043 -24.6646 -2.59101
-33.9379 -23.5766 -2.22033
-33.5838 -23.473 -2.42379
-33.958 -25.2726 -2.69796
-34.9595 -25.7391 -3.24084
-35.5242 -25.97 -2.49413
-35.0211 -25.9416 -2.36951
-34.748 -25.8563 -2.54451
-35.8239 -25.9794 -2.7766
-34.2564 -23.9481 -1.88443
-36.0147 -25.2191 -2.53798
-34.6021 -24.5122 -1.86045
-34.8029 -25.914 -2.59222
-35.0537 -25.9758 -2.43283
-33.7516 -23.9221 -2.21824
-34.0994 -25.4019 -2.69057
-35.8046 -25.2078 -2.45103
-35.5113 -24.7121 -2.35795
-36.0267 -25.7159 -2.77757
-34.1859 -24.6552 -1.82032
-34.1823 -24.2445 -2.47362
-33.2823 -24.3665 -2.12682
-35.2541 -26.0952 -2.49448
-34.7009 -24.7445 -2.71409
-34.7143 -25.7618 -2.97788
-35.9647 -25.8042 -2.77459
-35.6795 -25.2442 -2.42077
-34.3458 -24.7363 -2.60943
-33.7048 -24.6658 -1.89285
-33.5176 -24.8432 -2.40208
-33.3192 -24.7697 -2.69727
-34.9925 -24.4517 -2.77847
-32.9175 -24.4293 -3.03016
-35.2087 -26.2281 -3.00014
-34.7586 -25.9028 -2.9939
-33.6543 -24.1582 -2.41179
-34.3952 -25.6267 -2.75352
-35.102 -26.1933 -3.14677
-34.3074 -24.3564 -1.84031
-35.6589 -25.6536 -2.45408
-34.3551 -24.4097 -1.83617
-34.2551 -25.4618 -3.04524
-34.5838 -24.9833 -1.86389
-34.0009 -24.1068 -1.84478
-34.2993 -25.0108 -1.84557
-33.3541 -24.7558 -2.88351
-34.1807 -24.2867 -2.74262
-33.4779 -24.836 -3.03791
-34.9294 -24.6163 -2.77147
-34.9414 -24.3872 -2.76665
-35.5917 -26.0867 -2.6106
-34.265 -25.4521 -2.39009
-33.3114 -24.4843 -2.19167
-34.9532 -25.6959 -2.28901
-34.8141 -24.1975 -1.93305
-34.0384 -24.7452 -2.19796
-35.8521 -24.9552 -2.45618
-35.8786 -25.1158 -2.47266
-33.7134 -25.0549 -2.89651
-35.3314 -26.2507 -2.97177
-33.9048 -24.192 -1.84231
-35.157 -26.1925 -3.10599
-36.0854 -25.4721 -2.66436
-36.0035 -25.7935 -3.15779
-35.3106 -25.1392 -2.3276
-33.8887 -24.1167 -2.53839
-32.9755 -24.0063 -2.66065
-34.2431 -25.4044 -3.11986
-35.3947 -26.104 -2.54387
-35.217 -26.2413 -2.98657
-33.6141 -24.3532 -1.86424
-34.3468 -24.7975 -1.83305
-35.7069 -25.3103 -2.43373
-35.8076 -25.0541 -2.44368
-34.891 -24.739 -2.73809
-35.7018 -25.604 -2.45619
-34.9098 -24.7542 -1.92547
-34.7902 -24.3182 -2.83341
-34.8538 -25.8546 -2.39408
-34.6185 -24.0539 -1.91298
-35.1487 -24.3669 -2.74994
-35.4389 -26.0195 -2.60941
-33.0648 -24.5138 -2.66125
-36.1023 -25.6611 -2.93098
-35.4261 -25.8753 -2.43885
-33.373 -24.7637 -2.96562
-33.2114 -24.6514 -2.69698
-34.5458 -25.2373 -2.31367
-33.7074 -24.5057 -1.84316
-34.7646 -25.937 -3.18372
-34.1014 -23.9249 -1.88032
-34.2579 -24.6653 -1.8301
-35.7696 -24.955 -2.4425
-34.6441 -24.4262 -2.6114
-34.9483 -26.0406 -2.74678
-34.9511 -24.71 -2.73535
-33.4927 -24.6739 -3.1394
-34.6574 -25.6825 -3.20287
-34.2548 -23.9171 -2.64639
-34.4826 -25.6778 -2.88364
-34.816 -25.4156 -2.22896
-35.4335 -26.2368 -3.12144
-34.0068 -24.2177 -2.59559
-33.7741 -25.1205 -2.75455
-34.0062 -25.1976 -2.30092
-34.7917 -25.6741 -2.96698
-35.46 -26.2091 -2.70874
-33.2548 -23.8376 -2.39429
-35.6402 -26.0488 -2.62738
-33.0787 -24.3429 -2.36216
-33.7931 -23.9411 -1.88003
-35.1969 -25.4566 -2.33582
-33.5676 -24.9167 -3.00591
-34.7414 -25.6771 -2.30623
-34.3869 -25.6043 -2.63546
-35.4897 -24.6672 -2.27855
-33.2173 -23.7544 -2.56154
-34.5535 -25.6135 -2.19744
-33.2945 -24.4744 -2.19754
-34.6138 -25.2997 -2.36561
-35.0685 -26.1434 -2.8078
-34.6211 -25.7994 -2.84645
-34.0361 -25.2784 -2.98334
-34.7552 -24.601 -1.8784
-34.0005 -24.0926 -1.87392
-34.6152 -25.6729 -2.381
-34.3551 -25.5941 -2.84117
-34.7903 -25.9414 -2.68492
-34.2222 -25.0197 -1.85945
-34.6943 -25.6561 -2.23692
-33.9645 -25.2224 -2.44483
-35.0494 -26.1234 -2.84674
-34.1702 -25.4384 -2.6812
-35.6064 -25.3004 -2.40425
-34.622 -25.7322 -2.40662
-33.6541 -24.8513 -2.24651
-35.6776 -24.737 -2.39369
-34.8104 -24.1663 -1.9165
-34.2884 -23.9225 -2.60305
-35.2 -25.5137 -2.32462
-35.0682 -25.9716 -2.41467
-33.1897 -24.426 -2.27131
-34.3459 -25.5761 -2.79963
-34.3493 -24.1032 -1.86328
-33.0646 -24.5971 -3.19982
-34.3367 -25.5298 -3.04146
-34.9577 -24.5966 -2.75902
-34.5999 -25.3101 -2.22238
-33.4432 -24.3927 -1.98489
-34.4112 -24.707 -1.83693
-33.9727 -24.7795 -2.25086
-34.2993 -25.5091 -2.95257
-34.1417 -25.2406 -2.28726
-34.7075 -25.0069 -1.90326
-36.0055 -25.5544 -2.61172
-34.4353 -23.9111 -1.92613
-33.6936 -25.0418 -2.64428
-34.1115 -25.0089 -1.88982
-35.4707 -25.475 -2.38742
-35.9007 -24.9736 -2.4771
-34.445 -24.4467 -1.84185
-35.0457 -24.3408 -2.72157
-34.5203 -23.9842 -2.8584
-33.138 -24.2407 -2.2858
-34.7076 -25.6733 -2.34036
-35.3047 -26.1952 -2.64134
-34.4726 -25.2603 -2.39404
-33.2903 -24.145 -2.17438
-34.3618 -24.0536 -2.58813
-34.8199 -24.4217 -2.83933
-34.0974 -24.002 -2.62861
-34.7107 -24.1398 -1.91373
-35.3965 -26.2541 -2.89085
-34.994 -26.052 -2.58961
-33.9212 -25.2373 -2.84786
-34.8118 -25.9457 -2.7987
-34.8732 -25.9917 -2.77116
-34.3157 -24.7141 -1.83502
-34.854 -24.3914 -2.84058
-34.6078 -25.6033 -2.29361
-35.9319 -25.3988 -2.51967
-33.8863 -25.0218 -2.25299
-34.5157 -25.7111 -2.79329
-34.0466 -25.2252 -3.11763
-35.3788 -26.2322 -2.71542
-33.086 -24.4294 -2.42151
-33.9518 -24.5528 -1.82874
-35.7763 -25.9759 -2.67809
-34.7101 -24.5267 -2.82228
-33.0667 -24.441 -2.44706
-35.0018 -26.1211 -3.19419
-35.4076 -26.249 -2.84426
-34.1607 -24.2946 -2.74973
-35.9965 -25.8096 -2.8927
-35.1364 -24.5048 -2.04512
-35.1622 -24.3968 -2.69447
-35.8448 -25.9549 -2.78297
-34.2991 -24.7138 -2.63275
-34.6672 -25.2436 -2.19683
-35.2433 -26.2519 -2.93387
-34.7765 -25.8328 -2.46375
-34.8593 -24.4174 -2.81675
-34.8537 -24.6773 -2.77095
-33.1361 -24.5462 -2.69374
-36.0228 -25.729 -3.07285
-33.0238 -24.2515 -2.91919
-33.472 -24.3683 -2.32399
-34.8669 -26.0283 -3.25585
-33.6533 -24.4575 -1.85051
-34.1538 -23.9097 -1.8839
-34.6688 -24.4502 -2.73353
-34.2115 -25.423 -2.96907
-34.5932 -25.4666 -2.09108
-34.5293 -24.6148 -2.73013
-35.4465 -24.6454 -2.38902
-33.5708 -24.84 -2.29858
-32.9191 -24.0912 -2.84377
-33.6514 -24.0656 -1.9014
-34.9138 -26.0497 -3.0481
-35.4564 -25.5043 -2.38243
-35.146 -26.1239 -2.84917
-35.3545 -25.7622 -2.38875
-33.1489 -24.2276 -2.27906
-33.6832 -25.0182 -2.50187
-34.1379 -24.2507 -1.84621
-36.0618 -25.7145 -3.1222
-34.7908 -25.9227 -2.64912
-36.0954 -25.4054 -2.649
-34.4151 -25.5885 -3.05155
-33.5167 -24.8958 -2.64337
-34.4127 -24.4921 -2.49214
-34.5134 -25.6755 -2.33387
-34.8197 -25.4407 -2.26016
-33.3422 -24.0476 -2.16202
-33.3908 -24.7609 -2.48524
-35.6051 -24.7639 -2.38028
-33.6036 -24.9713 -2.78757
-35.3703 -25.085 -2.29877
-32.9721 -24.4562 -2.79338
-34.5568 -24.5874 -2.78183
-33.0396 -24.5733 -3.1941
-35.1507 -25.9098 -2.38235
-35.7385 -25.5517 -2.46568
-33.9487 -24.2557 -1.83792
-35.4284 -25.4726 -2.37578
-35.6351 -24.9928 -2.3901
-34.375 -24.4549 -2.40219
-34.8425 -25.2548 -2.23064
-33.9243 -23.7866 -1.91542
-34.0385 -24.2147 -2.5539
-34.6031 -24.6114 -2.79757
-34.6999 -24.813 -1.88234
-33.8647 -24.9265 -1.95334
-33.7866 -24.7269 -1.8797
-33.4517 -24.5901 -2.06556
-34.7165 -25.8942 -3.04431
-35.9656 -25.5642 -2.58369
-34.9041 -24.375 -2.79114
-32.9184 -24.4417 -2.99706
-35.541 -24.7271 -2.32605
-33.067 -24.0398 -2.44985
-35.0607 -25.7456 -2.35281
-35.3083 -25.8037 -2.38874
-34.9555 -26.0396 -2.80212
-35.559 -25.2514 -2.37955
-34.8403 -24.6886 -2.76976
-33.0728 -23.8354 -2.79324
-35.091 -26.1389 -2.6477
-35.3067 -24.6031 -2.14038
-33.9033 -24.5988 -1.83019
-33.8893 -23.9992 -2.57181
-34.7394 -25.8629 -2.59766
-34.7382 -25.8642 -2.88595
-34.5387 -25.6375 -2.19555
-33.9216 -23.7809 -1.93401
-34.5092 -24.3174 -1.85447
-34.5251 -24.3896 -2.48053
-33.2584 -24.4916 -2.25839
-34.4597 -25.6107 -2.19068
-36.1889 -25.3148 -2.80265
-33.7146 -25.0727 -2.7456
-33.048 -24.2448 -2.40174
-35.6552 -24.953 -2.40248
-34.3595 -24.7405 -2.68208
-35.8427 -25.7889 -2.61176
-34.1047 -24.107 -1.85773
-33.446 -24.726 -2.95606
-33.5506 -24.7944 -3.14641
-33.4711 -24.4624 -1.95958
-33.9061 -23.7794 -1.9551
-34.0677 -24.6576 -1.81519
-34.06 -25.253 -2.34328
-34.2259 -24.7992 -1.8192
-33.8106 -25.1136 -2.94987
-32.936 -24.4584 -2.94629
-32.9737 -23.9905 -2.74612
-34.27 -25.4728 -3.00088
-33.794 -25.1216 -2.88941
-34.4584 -25.1604 -1.88382
-32.9434 -24.3811 -3.12532
-33.9909 -23.8087 -1.90314
-35.7123 -25.8619 -2.54237
-34.5415 -24.5789 -2.5606
-34.8769 -25.998 -2.65199
-33.6986 -24.5986 -1.85486
-34.9526 -26.0036 -2.73529
-34.8048 -25.7531 -2.29649
-34.0772 -24.9623 -1.86478
-35.408 -26.2602 -3.04659
-33.167 -24.0016 -2.35798
-35.319 -25.777 -2.37538
-34.2584 -23.8665 -1.90541
-33.8985 -24.8232 -1.89107
-34.7858 -25.6217 -2.19038
-32.9746 -24.0002 -2.69368
-34.0457 -24.0515 -1.8587
-33.6612 -24.675 -1.91109
-35.4624 -25.5469 -2.38857
-33.9383 -24.875 -2.333
-35.9874 -25.8567 -2.91344
-33.658 -24.3985 -1.855
-33.4039 -24.6944 -2.3474
-34.1342 -24.6555 -2.28122
-33.6166 -23.4597 -2.41326
-33.5102 -24.3042 -1.94323
-34.1998 -24.1582 -1.854
-34.7997 -25.6596 -2.97166
-34.4886 -24.4482 -2.46069
-34.4621 -25.3637 -1.98669
-34.8944 -24.8512 -1.93975
-35.6889 -25.9366 -2.56108
-35.2081 -26.1856 -2.65552
-35.4237 -24.6373 -2.27875
-33.8473 -25.0757 -2.34115
-33.3062 -24.7603 -2.64881
-35.1004 -26.1996 -3.03629
-33.9264 -25.2551 -2.75187
-33.1792 -24.6405 -2.80784
-34.5087 -25.487 -2.01321
-34.5667 -24.2556 -1.8764
-33.8752 -23.7817 -2.27357
-33.4206 -24.3802 -1.98777
-34.6822 -25.6077 -2.17303
-34.17 -25.3495 -2.35734
-33.752 -24.4095 -1.84193
-34.9634 -26.028 -2.80527
-34.5273 -25.6729 -2.30566
-33.0564 -24.4524 -2.49361
-34.5064 -24.821 -2.73978
-34.2486 -25.4529 -2.44005
-32.979 -24.4975 -2.95725
-33.5502 -23.4873 -2.43335
-34.1954 -23.9918 -1.87412
-35.5596 -25.7611 -2.45198
-35.6794 -25.9131 -2.54922
-35.8353 -25.1899 -2.46555
-34.2601 -25.1488 -1.89875
-34.0523 -25.3477 -2.64565
-35.6593 -26.1036 -2.66993
-35.1474 -24.3908 -2.72264
-35.8199 -25.8535 -2.62521
-34.0619 -24.8186 -2.38822
-35.8473 -24.9959 -2.45567
-34.9856 -26.0423 -2.90746
-34.7424 -24.3479 -1.88787
-35.7008 -24.916 -2.42305
-33.2633 -23.8129 -2.36896
-34.2197 -25.4857 -2.87066
-35.207 -25.6715 -2.34604
-34.0579 -24.8559 -1.83805
-34.651 -24.3489 -1.8691
-34.4696 -24.5681 -2.69689
-35.9903 -25.69 -2.66049
-33.7499 -25.0136 -2.39418
-35.0538 -24.9387 -2.35228
-33.6655 -24.1117 -1.86066
-33.9874 -25.2748 -2.54185
-35.3148 -25.1262 -2.33406
-36.112 -25.5076 -2.70805
-34.5766 -24.5089 -2.62062
-34.3942 -25.575 -3.00325
-34.5366 -24.567 -2.62525
-33.5062 -24.8089 -2.38847
-33.804 -25.1407 -2.65005
-34.7694 -25.9441 -3.14737
-34.4128 -24.2697 -1.85398
-35.0596 -24.9203 -2.36954
-34.1682 -24.6676 -1.82137
-33.7913 -25.118 -2.53905
-33.9075 -23.6379 -2.1468
-35.2815 -25.5347 -2.36856
-33.2833 -24.6592 -2.48026
-35.4883 -25.9493 -2.46156
-33.7407 -25.0652 -2.53328
-34.0892 -24.8029 -2.36808
-35.1871 -26.1625 -3.09644
-32.9193 -24.116 -2.69048
-34.5339 -25.6785 -2.99251
-33.7697 -24.9438 -2.20961
-33.173 -24.222 -2.2577
-34.0014 -25.3056 -2.63975
-34.0667 -24.7102 -2.20026
-35.4687 -24.6002 -2.20911
-34.0056 -23.9108 -1.88332
-33.8244 -25.1397 -2.9874
-33.6464 -24.3517 -1.85335
-34.8133 -25.9085 -2.54461
-33.9389 -24.1724 -2.56902
-34.4434 -24.0089 -2.72644
-33.9762 -25.1095 -2.25732
-34.7756 -24.279 -2.71907
-33.2329 -24.4801 -2.28357
-34.3468 -25.4711 -2.34143
-35.3138 -26.2553 -2.94671
-33.5039 -24.6649 -2.23721
-33.7507 -23.9126 -2.242
-33.8552 -23.7227 -2.05019
-34.4323 -25.6173 -2.53476
-33.7627 -24.7539 -1.89999
-33.8046 -24.4637 -1.84027
-35.0102 -26.1151 -2.90389
-34.0971 -23.9461 -1.88018
-34.106 -24.2528 -2.6091
-34.7967 -25.9529 -3.13777
-35.0063 -25.8558 -2.34953
-33.045 -23.9776 -2.62038
-35.5461 -26.2393 -3.08119
-34.888 -26.0232 -3.09998
-35.4065 -25.903 -2.43921
-34.8998 -24.636 -2.76437
-33.9663 -24.9146 -2.30023
-33.9041 -24.2623 -1.84165
-34.6232 -25.1599 -1.92924
-34.4534 -24.9037 -1.84534
-35.1799 -26.2211 -2.88722
-36.0639 -25.6652 -2.79527
-33.7574 -25.0516 -3.03989
-35.7699 -25.6251 -2.48497
-35.2216 -26.2002 -3.0535
-33.8488 -24.1092 -1.85603
-33.8934 -24.4477 -1.83364
-35.2128 -26.2025 -2.70451
-34.0421 -24.797 -2.29165
-34.5399 -25.6865 -2.23722
-35.6969 -25.9069 -2.55329
-34.2266 -25.0918 -1.8684
-34.7727 -25.8853 -2.55815
-33.0086 -24.1575 -2.54623
-34.455 -24.3239 -2.49801
-35.0884 -26.1615 -3.24641
-34.6492 -25.7693 -2.54432
-33.8878 -25.1646 -3.038
-34.8907 -25.9616 -2.57567
-34.3663 -24.8702 -1.83888
-34.0559 -23.8596 -1.89897
-34.992 -26.0761 -2.78727
-35.9653 -25.8159 -3.08598
-33.3773 -24.4073 -2.01631
-34.2077 -25.4025 -3.0841
-34.8393 -24.9134 -1.92529
-34.5042 -25.3572 -1.95026
-34.7818 -25.8504 -2.82887
-33.4562 -24.5676 -2.09442
-33.2577 -24.7449 -3.09741
-33.7959 -24.0542 -1.86791
-34.1251 -24.0757 -1.87171
-35.0778 -26.1606 -2.91511
-34.1114 -24.4169 -1.82758
-35.5154 -24.7308 -2.25537
-34.4087 -24.3861 -2.60799
-34.439 -24.5023 -2.64135
-35.5999 -24.6962 -2.32667
-34.7449 -24.7137 -2.73978
-33.2175 -24.6941 -3.00346
-33.4808 -24.778 -2.38031
-35.3638 -25.6584 -2.38112
-34.4802 -25.2354 -2.43766
-33.218 -24.6017 -2.44873
-33.8517 -24.7517 -1.85007
-33.1037 -24.6209 -3.18692
-34.8061 -24.803 -1.90349
-33.9162 -24.1175 -2.70831
-33.2071 -24.4999 -2.34342
-33.0256 -24.263 -2.44789
-33.6905 -24.9697 -2.39496
-35.902 -25.4588 -2.51688
-34.0071 -25.2665 -2.95547
-33.8651 -24.9939 -2.14558
-34.5945 -25.4823 -2.04894
-34.3063 -24.4713 -1.82679
-33.0314 -24.4725 -2.95609
-35.1933 -26.1684 -2.62711
-35.856 -25.9532 -2.83694
-35.5424 -24.7354 -2.30618
-33.1161 -24.4855 -2.45552
-33.829 -24.9198 -2.01107
-34.6924 -24.7242 -2.80525
-33.5166 -24.7434 -2.18783
-34.0206 -25.3058 -2.55502
-36.0326 -25.3476 -2.55782
-34.5632 -25.4934 -2.07753
-33.4103 -23.6729 -2.38347
-33.5472 -24.9307 -2.76699
-35.4426 -26.257 -2.99179
-33.4882 -24.875 -2.67895
-35.3591 -25.9605 -2.43993
-33.8644 -25.1388 -2.44302
-33.0788 -24.4097 -2.41329
-35.0132 -25.6164 -2.28297
-34.5165 -25.6811 -3.01923
-35.5996 -26.0679 -2.60255
-34.394 -25.4571 -2.30208
-34.6873 -24.8454 -1.8703
-33.7944 -25.0622 -2.45431
-34.1264 -25.2574 -2.25043
-33.2956 -24.0521 -2.23112
-34.5603 -25.4272 -2.28632
-33.7042 -24.4519 -1.84779
-35.4431 -24.6075 -2.22908
-34.4073 -24.5976 -1.83675
-32.8962 -24.2063 -2.64161
-33.5039 -24.7758 -2.34261
-34.637 -25.8219 -2.8619
-35.8721 -25.8542 -2.67428
-34.9425 -25.951 -2.49702
-33.1689 -24.1145 -2.31307
-35.2722 -26.1786 -2.64255
-34.1045 -25.3575 -2.49643
-35.2179 -24.4495 -2.64827
-34.1415 -25.2452 -2.25641
-34.2854 -25.5282 -2.81116
-35.349 -25.6663 -2.36919
-34.1893 -25.2919 -2.25638
-34.9881 -24.1619 -2.60193
-35.4192 -24.6201 -2.24654
-34.3644 -24.052 -1.88323
-34.551 -25.065 -1.8767
-32.9752 -24.5009 -2.80727
-34.9001 -25.7493 -2.30936
-35.0385 -26.1172 -2.89107
-33.637 -24.9931 -2.64033
-34.6561 -24.3157 -2.58213
-34.3643 -25.4671 -2.31646
-35.1212 -26.1205 -2.61782
-34.0385 -24.6528 -2.22141
-34.116 -24.218 -1.84165
-34.0654 -23.9872 -1.87452
-34.515 -24.6024 -1.84078
-34.5431 -23.9557 -2.86433
-35.0253 -26.101 -2.61698
-34.1635 -25.4402 -2.84143
-34.6564 -25.6622 -2.29385
-34.3903 -24.2655 -2.46843
-35.7503 -25.4123 -2.45445
-34.8017 -25.7209 -2.2479
-33.9137 -24.8045 -1.82037
-33.2192 -24.4875 -2.30155
-34.3132 -25.1143 -1.87391
-34.2533 -24.6021 -1.82494
-35.7067 -26.0797 -3.01579
-34.1965 -25.039 -1.85993
-34.4495 -24.8085 -1.84098
-33.6896 -23.4661 -2.36261
-35.8105 -25.5591 -2.49098
-34.3095 -24.1559 -2.57966
-33.3474 -24.4959 -2.14318
-34.7165 -24.2499 -2.60096
-33.8663 -24.8083 -1.85502
-33.9513 -25.2157 -2.98908
-34.6016 -24.4584 -2.63618
-33.4395 -23.4977 -2.58324
-34.668 -25.5587 -2.11191
-35.9748 -25.7147 -2.67937
-35.6139 -25.1436 -2.40271
-34.6662 -24.5625 -2.82755
-34.3717 -24.7723 -1.8363
-34.94 -26.0752 -3.24549
-34.3169 -24.1273 -1.86339
-34.4115 -24.5506 -1.83582
-34.396 -24.008 -2.59577
-34.7933 -25.7016 -2.20904
-35.1575 -25.6595 -2.33381
-33.0625 -23.8512 -2.74792
-34.7714 -25.4013 -2.21396
-34.2988 -24.6577 -2.50233
-34.5737 -25.2631 -1.96982
-35.5127 -25.2243 -2.38047
-34.2985 -25.522 -2.54103
-33.7509 -24.6949 -1.95651
-33.7219 -24.9888 -2.35855
-34.5633 -24.8587 -1.85789
-34.7236 -25.8554 -2.93576
-35.0398 -25.7475 -2.26451
-34.3553 -24.6564 -1.83406
-34.2142 -25.3454 -2.29968
-35.3681 -26.1663 -3.19052
-34.4987 -24.5096 -1.8419
-35.5595 -25.8626 -2.47701
-34.8573 -24.3568 -1.90681
-35.5683 -25.0719 -2.35512
-34.6775 -25.0484 -2.30653
-35.6068 -25.7108 -2.45465
-33.6904 -24.9109 -2.2794
-34.9607 -24.4358 -2.8321
-34.9494 -25.8991 -2.38604
-34.8236 -25.9946 -3.2386
-35.3159 -25.6076 -2.34678
-32.9321 -24.3418 -2.83357
-34.6369 -24.412 -2.63445
-34.8952 -24.2477 -1.93723
-34.9209 -25.7524 -2.34267
-35.9936 -25.4852 -2.57121
-35.1955 -26.2139 -2.73672
-32.9651 -24.0525 -2.60921
-34.0894 -24.3454 -1.82701
-34.2997 -25.5435 -2.79195
-34.4523 -23.9398 -1.90313
-35.4844 -24.6704 -2.34743
-34.209 -23.7682 -1.93483
-34.4659 -25.3815 -1.95847
-34.4588 -24.6503 -1.83788
-35.7803 -25.8697 -2.60038
-34.996 -25.9131 -2.35449
-33.9574 -24.7552 -1.83924
-33.2074 -24.1456 -2.23937
-33.0148 -24.1028 -2.58445
-35.204 -25.8136 -2.36454
-34.6958 -25.293 -2.34702
-34.1743 -24.9739 -1.85141
-35.3004 -26.2276 -2.73612
-35.4073 -26.0505 -2.47906
-33.6586 -24.9945 -2.49727
-32.9973 -24.2583 -2.47722
-34.1601 -25.425 -2.59607
-33.9454 -24.3974 -1.83223
-34.0232 -25.2851 -2.99472
-35.922 -25.8641 -3.08979
-34.4224 -24.5208 -2.64034
-35.8935 -25.9043 -2.76309
-33.5069 -24.899 -2.7483
-35.59 -26.1001 -2.6436
-34.0101 -24.166 -2.72649
-33.0294 -24.5318 -2.86668
-35.3528 -26.2384 -2.75014
-36.0844 -25.6351 -2.79518
-33.1095 -23.7987 -2.65816
-34.8593 -26.0319 -3.1306
-33.0196 -24.2228 -2.46681
-35.8024 -25.3022 -2.45966
-35.0328 -25.9342 -2.36131
-34.508 -24.5208 -2.5129
-35.9473 -25.7451 -2.65906
-33.0115 -24.1707 -2.57434
-33.7757 -25.0382 -2.36278
-34.6984 -24.2454 -1.8862
-34.634 -25.8112 -2.79216
-34.0623 -24.7539 -1.8226
-33.7223 -25.0782 -2.714
-34.9549 -26.0576 -2.94323
-35.9834 -25.6341 -2.64738
-34.1153 -25.4114 -2.64694
-34.5036 -24.016 -1.90133
-33.2459 -24.1875 -2.2166
-34.4483 -25.1998 -1.88814
-33.9624 -23.9493 -2.71355
-34.0138 -23.6642 -2.16579
-35.0497 -26.1258 -3.08435
-32.9935 -24.3625 -2.4864
-33.1062 -24.614 -3.15252
-35.6028 -25.6008 -2.432
-33.7994 -25.1468 -2.74121
-34.3038 -25.4912 -2.4502
-35.4296 -24.7265 -2.31037
-34.2793 -23.9523 -2.66611
-34.0583 -24.1286 -2.82358
-33.3017 -24.7628 -2.88366
-33.8506 -24.7021 -1.83989
-33.3695 -24.6397 -2.30644
-34.3542 -24.3928 -2.39729
-34.2159 -23.9066 -2.61613
-34.2024 -24.9541 -1.8452
-35.0888 -26.0709 -2.57737
-35.6626 -26.0237 -2.61354
-36.1889 -25.4925 -2.89948
-33.4587 -24.7738 -3.1036
-34.1896 -25.4593 -2.7018
-35.0586 -24.446 -2.77986
-34.9617 -24.421 -1.92027
-35.8817 -25.8816 -2.70689
-35.0376 -25.9826 -2.44814
-34.9554 -26.0556 -2.8981
-34.9093 -25.9973 -2.75252
-35.0994 -24.4519 -1.97766
-33.6102 -23.7741 -2.15442
-35.8166 -25.7204 -2.54673
-34.2433 -25.3918 -2.33967
-35.5517 -26.2404 -2.86509
-34.9844 -25.5528 -2.25582
-34.4129 -25.2045 -1.8912
-34.5023 -24.1501 -1.87582
-34.4702 -25.689 -2.75425
-33.6396 -24.8636 -2.28627
-34.6069 -24.971 -1.86607
-35.2237 -25.7769 -2.37076
-34.4936 -24.5955 -2.64069
-34.9733 -26.0551 -2.60935
-34.6503 -24.8665 -1.86518
-34.6193 -24.9227 -1.87408
-33.9124 -24.6669 -1.82692
-34.6786 -24.0825 -1.92336
-35.2596 -26.2251 -3.10492
-34.0508 -24.5533 -1.82485
-33.0433 -24.5446 -2.99353
-33.8418 -24.8936 -2.03854
-35.3921 -26.2497 -3.08451
-33.0643 -24.5393 -2.80161
-33.2953 -24.7565 -2.84662
-34.0509 -24.2131 -2.7595
-35.8961 -25.8933 -2.7714
-35.1277 -24.3273 -2.82805
-35.2146 -25.4368 -2.26837
-36.0031 -25.1623 -2.52467
-34.7209 -24.4665 -2.83173
-33.1791 -24.6077 -2.66701
-34.3523 -24.5466 -1.8324
-34.1098 -25.356 -2.99436
-34.7764 -24.2669 -1.91281
-33.4714 -24.872 -2.84829
-34.166 -24.7641 -1.82598
-35.4169 -24.5984 -2.28664
-34.0455 -25.3429 -2.83497
-34.3005 -25.5419 -2.84264
-34.4402 -24.4851 -2.48505
-33.603 -24.6368 -1.94343
-32.999 -24.4447 -2.5439
-33.9123 -23.4742 -2.25005
-34.7561 -25.748 -3.11041
-35.9102 -25.4151 -2.51437
-35.7511 -25.7489 -2.51591
-33.5412 -24.7718 -2.28287
-34.8045 -24.4409 -2.834
-33.4809 -24.5772 -2.27795
-34.1041 -25.2069 -2.28821
-33.128 -23.8531 -2.58822
-33.3644 -24.4749 -2.10037
-33.9648 -25.2634 -2.54441
-34.5851 -25.7251 -3.01331
-34.1775 -24.0267 -1.86519
-34.7174 -24.7838 -2.77962
-33.5531 -24.2698 -2.30174
-34.9106 -24.7141 -1.91467
-34.623 -24.5044 -2.73918
-35.4635 -24.6204 -2.41719
-35.3221 -26.245 -2.79245
-34.9462 -24.97 -2.02217
-33.5762 -24.8437 -2.26272
-33.8526 -25.164 -2.50018
-34.5289 -25.3164 -2.31573
-34.961 -25.129 -2.29083
-34.1572 -25.3294 -3.116
-33.5175 -23.6197 -2.34978
-33.9053 -24.5112 -1.8245
-34.8759 -26.0022 -2.96892
-33.9079 -23.899 -1.88975
-33.2739 -24.7431 -2.84595
-34.2097 -25.3972 -2.38865
-33.8874 -24.8385 -1.90045
-33.5697 -24.3053 -1.8667
-33.6549 -24.9039 -2.29441
-34.5915 -25.0561 -2.43469
-33.1405 -24.578 -2.53642
-34.5274 -24.5941 -2.55749
-35.2633 -26.252 -2.8981
-34.4002 -25.0567 -1.858
-33.3034 -24.0229 -2.24683
-34.3371 -25.5694 -2.85239
-35.8433 -25.7459 -2.569
-33.6475 -24.9964 -2.93806
-33.0885 -24.5892 -3.0474
-35.4017 -26.1862 -2.61434
-33.8209 -24.1309 -2.6223
-34.4492 -25.6111 -2.49243
-34.6543 -24.6989 -1.86311
-35.837 -25.9055 -2.66878
-35.5463 -26.1895 -2.75217
-32.9129 -24.1064 -2.7958
-35.659 -26.1025 -2.69497
-34.9318 -24.2136 -2.62429
-33.6368 -24.8214 -2.20438
-34.4911 -25.1848 -2.44555
-34.5033 -25.4698 -2.25203
-34.4405 -24.0116 -1.88787
-35.2449 -24.5847 -2.076
-33.5115 -24.7255 -2.24997
-34.7964 -24.5063 -1.88378
-35.4274 -26.2529 -3.00961
-33.8009 -24.1016 -1.86072
-33.2242 -24.5378 -2.3652
-33.166 -24.6369 -2.83788
-35.3981 -25.3142 -2.34909
-34.4263 -25.6439 -2.84603
-36.118 -25.6078 -2.85854
-33.7316 -24.9676 -2.50022
-34.2958 -24.8453 -1.83488
-34.968 -24.2763 -2.70649
-34.7561 -24.9698 -1.90952
-35.848 -24.9129 -2.45966
-36.1079 -25.6335 -2.87054
-33.1294 -24.5874 -2.69794
-35.665 -25.3578 -2.42546
-33.4653 -23.4926 -2.5554
-32.9877 -24.183 -2.57051
-34.0357 -25.3218 -2.88638
-33.8659 -24.1576 -1.85535
-34.0039 -24.9228 -1.88593
-34.8181 -25.9958 -3.19311
-34.3972 -23.9725 -1.89415
-33.9386 -24.1677 -2.3497
-34.2399 -24.6173 -2.47076
-34.5454 -24.8398 -2.72572
-34.5508 -25.2171 -1.90413
-34.2094 -23.8725 -1.89809
-34.1032 -25.1718 -2.27469
-34.3362 -25.4968 -3.09604
-32.9356 -24.4243 -2.63578
-34.5267 -24.8198 -2.71359
-33.1951 -24.6545 -2.83724
-35.3695 -25.5626 -2.37304
-34.0968 -24.742 -1.80991
-36.0177 -25.457 -2.57853
-34.6413 -25.511 -2.06444
-33.901 -25.1881 -2.44509
-34.4061 -25.006 -1.85168
-36.0857 -25.6816 -3.12846
-33.261 -23.6915 -2.5837
-34.6679 -25.7552 -2.45546
-34.8561 -24.4033 -1.90878
-33.7486 -24.0548 -2.37988
-33.4968 -24.8686 -2.5412
-35.1506 -24.5155 -2.01429
-34.5547 -25.0027 -1.87611
-35.009 -25.7254 -2.32619
-33.7713 -24.7016 -1.86459
-34.7727 -25.6903 -2.22012
-33.2181 -24.0963 -2.26673
-33.0724 -24.5832 -3.09879
-34.2273 -25.3531 -2.24178
-34.4746 -25.6588 -2.24605
-33.3618 -24.7837 -2.9586
-34.2502 -25.3185 -2.27515
-34.2116 -25.3076 -2.29034
-34.2014 -24.8588 -1.8364
-34.3699 -25.1935 -1.97459
-35.0464 -25.7386 -2.37368
-33.555 -24.4541 -1.88796
-35.002 -24.3016 -2.64469
-33.2974 -24.76 -2.99511
-34.5919 -24.2604 -1.86944
-35.4578 -25.9549 -2.46159
-35.7576 -25.8139 -2.54608
-34.5105 -24.558 -2.69989
-35.3302 -24.5038 -2.8198
-32.8652 -24.3215 -2.9036
-33.8069 -23.8683 -2.25713
-34.1082 -24.5097 -1.82021
-33.9724 -25.2495 -2.94141
-35.9486 -25.8549 -3.09883
-35.3517 -26.002 -2.45215
-33.3215 -24.4131 -2.10192
-34.9564 -25.941 -2.39992
-34.4205 -25.5365 -2.35553
-33.4658 -24.7894 -2.40939
-33.4862 -24.8781 -2.85643
-34.8572 -25.7914 -2.3104
-34.7178 -25.6559 -2.20812
-33.9983 -25.3096 -2.74825
-34.9997 -25.9897 -2.49959
-34.9026 -25.9566 -2.53532
-35.7163 -25.9634 -2.61397
-34.566 -25.4951 -2.06527
-34.8063 -25.776 -2.33704
-34.5998 -25.7486 -2.54507
-32.9531 -24.1143 -2.59744
-34.6354 -25.7261 -2.42822
-34.7197 -25.7979 -2.44731
-34.9604 -26.1125 -3.23346
-34.4754 -25.6899 -2.61158
-33.3056 -23.6776 -2.54874
-34.3483 -24.6503 -2.54895
-34.2425 -24.6884 -2.54517
-34.5613 -24.4651 -1.85078
-35.43 -24.5305 -2.41111
-33.8622 -25.1981 -2.75515
-34.573 -25.3256 -2.24262
-33.5256 -24.9071 -2.89673
-35.3334 -24.5254 -2.10281
-34.5694 -25.3691 -1.97631
-35.7322 -26.1139 -3.12226
-33.9991 -25.2731 -2.49147
-34.5117 -25.3933 -1.9991
-33.9579 -24.65 -1.82858
-33.2239 -24.1877 -2.21893
-35.1077 -25.9053 -2.37677
-33.9558 -25.2605 -2.59515
-35.3214 -26.1868 -2.61372
-35.1462 -25.8473 -2.36007
-32.9235 -24.4336 -2.69635
-34.0029 -24.8461 -2.2965
-33.8745 -24.9504 -2.0425
-34.8483 -25.862 -3.01178
-33.1459 -23.8463 -2.57729
-34.4183 -25.6146 -2.24661
-33.4015 -24.8087 -2.64154
-33.2192 -24.7021 -3.03525
-33.9649 -25.2386 -2.99288
-36.0549 -25.2956 -2.56068
-34.7103 -25.87 -2.6932
-34.4527 -25.3083 -1.94345
-33.9512 -23.9925 -1.87913
-34.3193 -24.1241 -2.5617
-33.5572 -24.8748 -3.07948
-35.6022 -26.1918 -2.81041
-35.1288 -25.416 -2.3137
-35.5556 -26.2117 -2.80419
-33.5683 -24.9448 -2.64868
-34.0024 -24.2069 -1.84449
-33.9101 -23.9915 -1.86531
-32.9585 -24.463 -2.84953
-34.3874 -24.423 -2.44245
-33.7708 -23.6979 -2.22713
-34.0027 -24.6231 -1.81905
-34.4141 -24.9221 -1.84383
-32.8781 -24.2785 -2.71369
-34.0995 -24.1473 -1.85149
-34.603 -25.722 -2.48049
-35.0089 -26.0919 -2.67791
-33.8589 -23.8239 -2.15605
-33.1475 -24.6281 -2.92956
-32.9494 -24.4808 -3.10809
-35.4785 -24.8557 -2.36602
-34.4915 -25.0391 -1.86497
-33.883 -24.8871 -1.98141
-33.7519 -24.2465 -1.85368
-34.2731 -25.5175 -2.60418
-35.5832 -26.0347 -2.56286
-33.8031 -24.1159 -2.57298
-33.4997 -24.6994 -2.19899
-34.8094 -25.7973 -2.35055
-33.9147 -24.1266 -1.72582
-32.8946 -24.292 -2.6436
-34.03 -23.9699 -2.79649
-34.6493 -25.1513 -2.27813
-33.0048 -24.5 -2.79428
-34.4939 -25.667 -2.2241
-34.908 -25.8461 -2.34687
-34.3138 -25.5564 -2.75016
-35.5164 -24.7357 -2.3426
-33.5832 -24.9075 -3.0359
-33.1609 -23.842 -2.56283
-34.445 -25.3029 -1.98533
-33.953 -24.6969 -2.18147
-33.4494 -23.651 -2.37809
-34.9411 -24.6021 -1.9185
-35.1983 -25.9026 -2.38882
-35.4569 -26.016 -2.48583
-33.0638 -24.1601 -2.44027
-33.7603 -25.1101 -2.79708
-33.0122 -24.524 -3.13329
-35.4522 -25.8975 -2.45292
-35.2925 -26.248 -3.04588
-34.9033 -24.3923 -2.79888
-34.2973 -25.4259 -2.3395
-35.8053 -25.4624 -2.48064
-35.8793 -25.6164 -2.54081
-33.2342 -24.6532 -2.68146
-33.1109 -24.5975 -2.90115
-32.9585 -24.4903 -3.04938
-34.1301 -25.2605 -3.15952
-34.6355 -25.3775 -2.03436
-33.8674 -24.0807 -1.89128
-34.507 -24.758 -1.84812
-34.0085 -24.3615 -1.82788
-33.6368 -24.1599 -2.43219
-35.015 -26.138 -3.13789
-34.9611 -24.4649 -2.78371
-35.2621 -25.9582 -2.41275
-33.8058 -24.9644 -2.24184
-34.2777 -24.12 -2.57416
-33.699 -24.1005 -2.40399
-33.4967 -24.8798 -2.66161
-36.0328 -25.7672 -2.8649
-33.2745 -24.607 -2.36536
-33.3899 -23.7096 -2.3673
-35.3125 -24.5943 -2.11519
-33.4256 -23.4764 -2.67639
-33.2327 -23.8288 -2.46917
-33.523 -24.7883 -2.30846
-34.6129 -25.7943 -2.80008
-35.3712 -25.0439 -2.33515
-33.3346 -24.7692 -2.63808
-34.3045 -24.7062 -2.59449
-32.9981 -23.9507 -2.8842
-33.4093 -23.5067 -2.60732
-34.9158 -26.0312 -2.89835
-33.0177 -24.2741 -2.41089
-34.1276 -24.2633 -2.52468
-34.5454 -25.7278 -2.65723
-35.4056 -26.0095 -2.46568
-33.4046 -23.8949 -2.17905
-33.0333 -24.3611 -2.42844
-32.9936 -24.5159 -3.18958
-34.6032 -24.8971 -2.73855
-33.977 -23.9219 -1.88535
-34.5677 -24.1926 -1.8792
-35.2979 -25.5864 -2.3732
-34.3984 -25.6227 -2.7941
-34.9026 -26.0035 -2.79546
-33.6463 -24.6866 -1.91372
-34.0332 -25.317 -2.59127
-34.648 -25.8289 -2.91605
-35.4492 -25.6572 -2.40105
-35.1893 -25.3485 -2.29608
-33.3855 -24.7276 -2.88266
-34.809 -25.8514 -2.44558
-32.9952 -24.4968 -2.63792
-34.5929 -24.9566 -1.87606
-34.7461 -24.1544 -1.91988
-35.2465 -25.5686 -2.35469
-33.0907 -24.2529 -2.33912
-34.9546 -26.053 -2.64516
-34.3924 -25.5708 -2.48609
-35.9273 -25.6667 -2.60499
-34.376 -24.4193 -2.46876
-34.4549 -24.5458 -1.83858
-34.3436 -25.4149 -2.2962
-35.574 -25.3693 -2.39783
-34.1106 -24.6048 -1.81748
-34.0079 -24.0087 -1.86511
-34.8989 -25.9059 -2.44048
-34.4492 -25.5695 -2.39481
-33.7983 -25.1283 -2.86596
-33.8969 -23.9467 -2.60815
-33.9365 -25.2283 -2.53604
-33.9326 -23.7444 -2.32346
-34.0821 -24.7924 -2.38879
-33.7079 -25.0422 -2.50066
-34.5583 -25.6842 -2.3992
