-3.51024 -9.30087 -2.35287
-4.23456 -9.89902 -1.79865
-4.05183 -10.1687 -1.36281
-4.98032 -10.3918 -2.59831
-4.53755 -10.0023 -1.84045
-3.69321 -9.41418 -2.38601
-4.34686 -9.81454 -2.29875
-3.40842 -10.75 -1.99437
-4.66428 -10.306 -1.50275
-5.08075 -10.4352 -2.68638
-4.30354 -9.77176 -2.49077
-4.26335 -11.0026 -1.33272
-5.1532 -11.0381 -2.42422
-4.12958 -11.1504 -1.8181
-4.50125 -10.7559 -1.78614
-4.45198 -9.92191 -1.85738
-4.18507 -9.67694 -2.46555
-3.74284 -9.60806 -1.76612
-5.14476 -10.4268 -2.27953
-3.95706 -11.0685 -1.99563
-4.86414 -10.2522 -2.04584
-3.6631 -9.29431 -2.3434
-5.03601 -11.0701 -1.71621
-3.22754 -9.41071 -2.06639
-5.05165 -10.3911 -2.02971
-4.65775 -10.204 -1.63616
-5.19472 -10.637 -1.74353
-4.47961 -11.5095 -1.82935
-4.00626 -9.53986 -2.23563
-3.81152 -9.41318 -2.44381
-4.95013 -10.2819 -2.23176
-5.05843 -10.4367 -1.94328
-4.75157 -10.7508 -1.79018
-3.24571 -9.79968 -2.49714
-3.94241 -9.60571 -1.74089
-4.10287 -10.9701 -1.97319
-4.75664 -11.4648 -2.5869
-4.56273 -10.3026 -1.34871
-4.47266 -10.779 -1.2687
-5.20378 -10.8589 -1.99651
-4.61188 -11.5818 -1.9654
-5.22992 -10.793 -2.0597
-4.01573 -9.59174 -1.88831
-4.76601 -11.5499 -2.3544
-3.86192 -11.0456 -2.20448
-3.55157 -9.20718 -2.19318
-4.86722 -11.415 -2.39019
-3.99886 -9.54938 -2.27676
-3.45164 -9.27597 -2.03562
-5.06671 -11.0271 -1.80357
-3.82208 -9.4205 -1.91561
-3.84282 -9.45883 -1.88984
-4.35286 -10.9313 -1.30635
-4.08728 -10.3146 -1.30804
-3.50029 -9.2439 -2.40531
-5.25777 -10.537 -2.54478
-5.22487 -10.5914 -1.98508
-3.83585 -9.81076 -1.76186
-4.77774 -10.1577 -2.51147
-4.53961 -10.7115 -1.26147
-5.11334 -10.4466 -2.08743
-2.94283 -9.92026 -1.99964
-4.81477 -10.737 -1.77776
-5.15224 -10.7024 -1.54398
-4.13078 -10.5177 -1.30228
-4.53204 -10.0301 -1.76114
-3.35866 -9.25272 -2.15959
-3.75473 -11.0106 -1.99551
-5.26936 -10.5403 -2.63512
-4.90738 -10.3063 -1.94442
-4.7372 -10.3096 -1.6907
-3.37523 -10.2789 -1.85089
-3.6114 -9.26071 -2.4976
-4.3268 -11.4977 -1.81081
-3.7516 -9.26086 -2.69674
-4.40804 -9.87631 -2.06587
-4.89783 -11.272 -1.95934
-4.90311 -11.367 -2.28361
-3.72522 -9.61676 -2.32486
-4.22501 -9.53369 -1.77907
-3.40144 -9.2088 -2.16494
-4.15654 -10.897 -1.91237
-4.2386 -10.9039 -1.31112
-4.67549 -10.3459 -1.69754
-5.10301 -10.4986 -1.84093
-4.5659 -10.04 -2.09834
-3.76865 -9.34143 -2.54472
-4.06267 -9.6069 -2.04642
-4.41055 -10.4513 -1.29078
-3.43713 -10.7195 -2.13895
-3.43431 -9.51553 -1.89542
-4.95125 -10.5637 -1.44408
-4.95528 -10.6045 -1.40477
-3.31615 -10.6571 -1.95593
-4.50009 -9.95563 -1.9395
-4.24699 -9.7319 -2.28356
-4.605 -10.399 -1.33261
-4.51945 -9.98242 -1.96608
-3.56831 -9.25177 -2.05814
-5.19084 -10.7567 -1.6304
-5.29916 -10.6151 -2.3977
-4.15767 -9.66815 -2.39696
-4.81009 -10.5281 -1.77273
-4.08009 -11.0067 -1.34295
-3.68712 -10.6601 -1.38725
-3.85609 -9.60428 -1.73012
-5.16121 -10.6176 -1.6614
-4.98723 -11.1557 -2.24647
-3.71953 -11.0346 -1.92282
-3.50795 -9.24747 -2.03408
-2.80179 -10.1003 -2.05808
-2.92039 -9.62616 -2.44987
-3.58992 -9.17441 -2.59032
-4.19722 -10.1784 -1.30878
-3.7097 -10.9482 -2.18755
-4.51848 -10.1966 -1.58578
-4.9894 -10.3557 -2.46306
-5.1241 -10.4391 -2.54713
-3.75777 -9.40662 -2.4178
-4.66066 -11.6189 -2.49388
-3.3033 -10.0952 -1.79196
-3.43092 -10.0786 -1.84139
-5.15907 -10.8188 -1.70159
-4.50124 -10.1962 -1.63243
-4.07143 -9.74857 -1.64512
-3.90587 -9.47064 -2.04876
-4.51311 -9.95929 -2.0466
-4.53201 -10.4916 -1.25935
-3.83102 -9.91177 -1.74231
-3.57651 -9.56152 -2.48684
-3.605 -9.43829 -2.38373
-4.79706 -10.1613 -2.47942
-2.92442 -9.73938 -2.09648
-3.91573 -11.1124 -1.90118
-4.46754 -10.3029 -1.30396
-4.62218 -10.0432 -2.44992
-2.82047 -9.75354 -2.32646
-3.78873 -9.40918 -2.24211
-4.61832 -11.2531 -1.38756
-4.02856 -11.0352 -1.86329
-3.70157 -9.45676 -2.25362
-3.54634 -9.18948 -2.53057
-5.29344 -10.565 -2.45212
-4.19794 -9.71396 -2.04429
-4.22267 -10.7246 -1.93466
-3.7291 -9.90045 -1.76322
-3.69676 -9.27335 -2.14763
-4.19662 -11.3707 -1.80394
-4.22989 -10.7285 -1.9181
-3.25531 -10.626 -1.82227
-4.30209 -10.011 -1.41102
-3.60924 -9.3194 -1.95602
-3.14497 -9.56506 -2.00272
-4.66542 -10.1049 -1.85143
-3.86302 -10.0681 -1.4497
-4.98112 -11.1015 -2.01688
-4.45515 -9.89825 -2.24324
-3.07169 -9.39334 -2.25006
-4.61659 -10.8979 -1.3173
-3.4229 -9.16119 -2.50308
-5.10425 -10.5163 -2.25375
-5.16566 -10.8957 -1.74875
-4.67113 -10.7743 -1.32248
-4.69432 -10.2608 -1.54618
-4.50377 -10.012 -1.79412
-4.17262 -10.8837 -1.31283
-5.15765 -10.493 -2.48571
-4.63934 -10.0685 -2.48325
-3.53259 -9.88406 -1.7938
-2.84419 -9.70367 -2.24435
-4.00163 -10.255 -1.35457
-3.69896 -9.49783 -1.83376
-3.82542 -9.4039 -2.09831
-4.26178 -10.7987 -1.8278
-4.61913 -11.2294 -1.80701
-3.2941 -9.2236 -2.39828
-4.67953 -10.0838 -2.42484
-4.75066 -11.3362 -1.87804
-4.93681 -10.258 -2.28043
-5.3279 -10.7783 -2.31793
-4.82626 -11.4653 -2.38053
-3.53246 -9.64822 -1.80477
-4.22208 -11.2761 -1.84499
-3.84933 -9.38797 -2.68321
-3.60974 -9.24884 -2.34261
-4.18831 -9.69666 -2.08891
-4.2043 -9.70273 -2.29494
-5.05049 -11.0405 -1.73082
-4.04045 -9.57275 -2.3059
-4.23669 -10.6536 -1.28793
-4.08336 -9.70978 -1.69836
-2.9808 -9.53452 -2.36906
-3.69005 -9.40469 -1.88866
-3.93437 -9.47202 -2.41144
-3.83385 -9.42606 -2.39638
-4.89532 -10.2254 -2.31479
-4.72067 -10.1199 -2.10841
-3.60956 -9.3848 -1.92706
-3.47142 -10.8413 -1.98583
-5.01488 -10.6446 -2.28903
-4.48262 -10.3644 -1.31225
-5.23389 -10.623 -1.9147
-3.80618 -9.52823 -1.7553
-4.17654 -9.68219 -2.28997
-4.60942 -10.0149 -2.10149
-4.03516 -11.2863 -1.83385
-5.27992 -10.5529 -2.61058
-3.85129 -11.0295 -2.2341
-3.74844 -9.3938 -2.24728
-3.66328 -9.29327 -2.23995
-4.71754 -10.5278 -1.74506
-4.15886 -10.1927 -1.32786
-4.29738 -10.5056 -1.26001
-5.12482 -10.4266 -2.28753
-4.63927 -10.4928 -1.52761
-4.50696 -11.0674 -1.80775
-4.85558 -11.2555 -2.01274
-4.70482 -11.5684 -2.49646
-3.84607 -9.4202 -2.30592
-5.04573 -10.6333 -1.55778
-3.8154 -9.44131 -2.3942
-3.07249 -10.0191 -1.90462
-4.57689 -11.5055 -1.73894
-4.1297 -10.2923 -1.32472
-4.95682 -10.7646 -1.38283
-4.3054 -10.5491 -1.28216
-5.03842 -11.1967 -2.43921
-3.55858 -9.44705 -1.85892
-3.16563 -10.5392 -1.83352
-3.33098 -9.41592 -2.40109
-4.51674 -10.4482 -1.78565
-3.41629 -9.57672 -2.45255
-4.5242 -10.7918 -1.8163
-3.37047 -9.16782 -2.3982
-5.06081 -10.3911 -2.67871
-3.8531 -10.418 -1.36227
-3.94786 -10.6222 -1.33234
-4.25346 -10.8926 -1.70646
-5.18643 -10.5096 -2.14073
-3.34358 -9.36395 -2.11667
-4.22603 -10.8473 -1.80729
-4.46913 -9.90756 -2.20489
-4.23537 -10.0012 -1.44259
-4.36687 -9.89081 -1.84072
-4.5755 -11.4855 -1.81695
-3.38744 -9.4993 -1.91858
-4.14857 -9.95074 -1.78511
-3.98732 -10.9521 -1.33127
-4.98503 -10.3188 -2.35389
-3.1187 -9.81863 -1.91662
-4.10497 -10.8025 -1.33294
-3.44809 -9.15402 -2.44009
-3.59172 -9.24338 -2.3996
-5.26431 -10.7563 -2.15819
-4.11275 -9.89468 -1.4861
-3.74051 -9.43146 -2.61686
-2.83949 -9.91599 -2.0866
-3.29559 -9.4556 -2.39915
-5.01474 -10.6135 -1.50109
-4.66644 -10.5606 -1.29511
-3.90639 -9.49799 -2.52452
-3.98434 -10.2072 -1.36254
-4.16245 -10.0623 -1.36123
-4.75809 -10.1465 -2.34916
-5.23479 -10.5197 -2.69329
-4.55489 -10.6607 -1.30028
-5.11639 -10.881 -1.67111
-4.17969 -10.8697 -1.88361
-3.44533 -9.28992 -2.02473
-5.07516 -10.4046 -2.60421
-3.2126 -9.55478 -1.9848
-3.7047 -9.20651 -2.69273
-4.2845 -11.1846 -1.35364
-5.05232 -10.4518 -1.89311
-3.35168 -10.6071 -1.65575
-5.01218 -10.3806 -2.26929
-4.20776 -9.72308 -1.9704
-4.56731 -9.99121 -2.1858
-3.68385 -9.2681 -2.51117
-4.62691 -10.0219 -2.40899
-4.50746 -9.936 -2.13827
-4.94168 -10.3239 -1.91353
-4.46059 -9.90656 -2.38573
-4.35634 -10.1371 -1.3926
-4.11115 -9.6666 -2.52462
-4.73924 -10.189 -1.82561
-4.70424 -10.4038 -1.37925
-3.32674 -10.6075 -1.98304
-4.80142 -10.3601 -2.60479
-3.59532 -9.49136 -1.87661
-3.60048 -9.45233 -1.88834
-3.49208 -10.7929 -2.13041
-3.10909 -9.45926 -2.13701
-4.77403 -11.4788 -2.46465
-5.04198 -10.3741 -2.52643
-4.63283 -11.5645 -2.19024
-3.37886 -9.47946 -2.5942
-4.98979 -10.4855 -2.22183
-3.87091 -9.69424 -2.49598
-4.23402 -9.54205 -1.68309
-4.5475 -10.0225 -1.8122
-2.83105 -9.73792 -2.2413
-4.18257 -11.076 -1.80745
-3.02426 -9.49506 -2.39878
-5.33707 -10.6668 -2.27979
-2.72881 -10.0828 -2.21752
-4.99603 -10.3999 -2.28824
-4.56422 -9.97336 -2.25302
-4.84389 -10.2247 -2.10034
-4.1902 -9.87045 -1.61329
-4.14723 -9.81866 -1.72931
-4.99991 -10.311 -2.60097
-4.68813 -11.5047 -2.19791
-4.50339 -11.511 -1.59004
-3.97549 -9.5553 -1.95441
-4.5712 -10.558 -1.29865
-3.99275 -10.4252 -1.31418
-3.32184 -9.29123 -2.15393
-4.0974 -9.74521 -1.63467
-3.75471 -9.5585 -1.80489
-4.22691 -11.4233 -1.82352
-4.88554 -10.7602 -1.34649
-4.68275 -10.3383 -1.45995
-5.22101 -10.8148 -1.76943
-3.96516 -10.2059 -1.38531
-4.85402 -10.2951 -1.78937
-4.45938 -10.6866 -1.2909
-4.60612 -10.8951 -1.77378
-3.91759 -10.6563 -1.33064
-2.90338 -9.72009 -2.14957
-3.80528 -9.97531 -1.86114
-4.7959 -10.1726 -2.2454
-4.75485 -10.7883 -1.32366
-4.75362 -10.5664 -1.3138
-4.85837 -10.6077 -1.34387
-5.17207 -10.5445 -1.98075
-5.27457 -10.6008 -2.44604
-4.38878 -9.85861 -1.98042
-5.01474 -10.4009 -1.94699
-4.30385 -10.1218 -1.36275
-4.99937 -10.8878 -2.63103
-4.17189 -9.80975 -1.69707
-4.29729 -9.89316 -1.68526
-5.14705 -10.5417 -1.89247
-4.8596 -10.3476 -1.73685
-4.65007 -10.0888 -1.89003
-5.12552 -10.5703 -1.60616
-3.92493 -9.65158 -1.71453
-3.19798 -9.27844 -2.2285
-3.34061 -9.45926 -1.96306
-4.71869 -10.1371 -2.0837
-4.73367 -11.4638 -2.19482
-4.24718 -9.72906 -2.47722
-5.24983 -10.5714 -2.23692
-4.39836 -9.97211 -1.71199
-3.61691 -9.20831 -2.62809
-4.26143 -9.81146 -1.80903
-4.42743 -10.3744 -1.26149
-4.65373 -10.463 -1.30621
-3.33388 -9.29105 -2.53072
-4.98039 -10.3448 -2.56612
-3.29353 -9.21075 -2.20235
-3.49443 -10.0883 -1.7563
-4.70897 -10.4265 -1.36066
-4.02205 -10.0581 -1.80042
-4.03833 -9.56973 -2.43305
-4.45409 -9.90155 -2.29032
-4.10127 -9.79568 -1.58903
-4.02614 -9.90503 -1.8143
-4.19637 -9.6973 -2.44567
-5.20627 -10.4958 -2.68764
-3.45644 -9.16531 -2.19296
-2.9736 -9.5668 -2.43791
-3.85214 -9.44849 -2.26206
-4.91841 -10.58 -1.41161
-3.23062 -10.5592 -1.79192
-4.91734 -10.2933 -2.43992
-3.94429 -9.49258 -2.24532
-4.22212 -9.51642 -1.73008
-5.17085 -10.6184 -2.33133
-3.64687 -9.21555 -2.50496
-4.91759 -10.5945 -1.38749
-4.25381 -9.95966 -1.43708
-3.69997 -9.29929 -2.44144
-4.29993 -10.99 -1.80103
-4.98073 -10.2975 -2.43093
-3.50758 -10.0368 -1.82566
-5.21834 -10.8208 -2.13391
-4.28841 -10.0808 -1.40865
-3.54311 -10.0089 -1.78329
-5.21089 -10.8127 -1.79798
-5.01137 -10.4849 -2.44937
-4.15248 -10.1537 -1.31258
-4.51347 -9.9545 -2.24001
-4.50124 -11.405 -1.42665
-5.29234 -10.8573 -2.26968
-4.28676 -9.81339 -1.80737
-3.52893 -9.18127 -2.17633
-3.69084 -9.31961 -1.94926
-3.50528 -9.16565 -2.29606
-4.44145 -10.2195 -1.38022
-4.74529 -10.2051 -1.79023
-3.50198 -10.8557 -1.918
-3.51808 -10.0516 -1.7953
-4.12885 -9.63083 -1.72518
-4.53496 -11.6012 -1.73137
-4.40915 -10.5983 -1.30735
-3.17113 -9.57266 -2.38058
-4.19511 -10.7257 -1.99252
-4.37169 -9.8378 -2.15332
-4.30383 -10.6352 -1.88518
-4.57718 -10.421 -1.30697
-5.28302 -10.7245 -1.93122
-5.29897 -10.8015 -2.21717
-3.91039 -11.1244 -1.8534
-4.26289 -10.4405 -1.31396
-4.06483 -9.70923 -1.69432
-4.22928 -11.4373 -1.81171
-4.07295 -9.59647 -2.24682
-4.27031 -9.9079 -1.71596
-4.65495 -10.416 -1.64282
-3.34158 -9.65857 -1.87074
-4.30827 -9.78452 -2.47247
-4.54393 -10.7083 -1.78074
-4.57457 -10.3505 -1.35503
-4.08659 -11.3213 -1.83217
-3.2798 -9.32156 -2.17347
-4.46269 -9.87943 -2.41085
-4.03624 -9.62106 -1.84541
-4.16519 -9.97421 -1.37168
-4.15935 -10.1536 -1.3397
-4.26309 -11.4396 -1.82693
-4.1973 -9.71979 -2.00005
-4.13396 -10.4384 -1.31632
-4.62996 -11.2297 -1.82058
-4.6284 -10.448 -1.58849
-5.13182 -10.9356 -1.79934
-4.08669 -9.60239 -2.38617
-3.95903 -9.53043 -2.43556
-5.00223 -10.3526 -2.49107
-5.08167 -10.7022 -1.4617
-5.11038 -11.06 -2.44544
-3.64194 -9.20975 -2.64112
-4.73611 -10.1167 -2.48601
-3.4071 -10.1846 -1.81227
-3.4827 -10.8257 -1.97783
-4.59242 -10.3767 -1.38553
-4.76231 -10.2531 -1.71507
-3.95486 -9.53171 -2.39182
-3.40723 -9.19516 -2.18184
-5.17929 -10.6419 -2.36101
-3.50168 -10.7755 -2.01678
-4.90054 -10.2935 -1.98595
-3.84578 -9.37891 -2.09439
-4.63669 -11.1816 -1.80671
-4.04103 -11.038 -1.83718
-3.23682 -9.97589 -1.84048
-4.01224 -9.61087 -1.76374
-4.68303 -10.269 -1.49976
-3.71288 -9.31158 -2.63289
-4.49669 -11.4379 -1.64419
-3.22694 -10.5565 -1.84808
-4.76146 -10.9027 -1.34645
-3.96588 -10.4808 -1.33139
-4.61998 -10.0583 -1.99482
-3.48126 -10.7707 -2.04115
-4.86832 -10.3869 -1.68211
-4.82588 -10.2689 -1.80356
-4.86839 -10.5686 -2.28876
-3.62886 -10.0047 -1.80807
-5.33272 -10.7575 -2.46053
-3.71059 -9.5643 -1.79303
-5.10774 -10.6449 -1.58503
-4.1093 -10.9908 -1.32624
-4.01877 -9.63425 -1.74376
-3.81157 -10.4814 -1.366
-3.9882 -9.52859 -2.40719
-5.15462 -10.5044 -2.53929
-5.15475 -10.498 -2.04251
-3.43913 -10.7733 -1.92956
-5.10182 -11.1076 -2.2437
-3.75288 -9.44186 -2.39761
-4.97572 -10.3573 -2.3037
-5.06374 -10.3759 -2.26712
-5.2605 -10.8717 -2.4389
-4.24214 -10.0696 -1.35565
-4.77036 -11.3519 -2.01327
-4.41824 -11.4592 -1.7865
-4.36304 -10.1568 -1.35181
-4.50894 -10.8213 -1.30737
-3.66148 -9.27945 -2.25499
-5.0049 -10.3408 -2.62907
-4.35379 -9.86139 -1.89704
-3.85097 -9.36948 -2.68943
-4.74207 -10.1206 -2.10243
-3.90836 -10.6068 -1.31064
-5.121 -10.7112 -1.50676
-3.30742 -10.6266 -2.0679
-4.24155 -10.0458 -1.39012
-4.10283 -9.62137 -2.44654
-4.11719 -9.64023 -2.22601
-4.98846 -10.4472 -2.43906
-4.62772 -10.0353 -2.10154
-4.23749 -10.9533 -1.72379
-4.37592 -9.83234 -2.40137
-4.08754 -9.72144 -1.57827
-3.30899 -9.65729 -1.90396
-3.76483 -9.51181 -1.81056
-3.54286 -10.0272 -1.76397
-4.58107 -11.4945 -1.80208
-2.7074 -10.0279 -2.23964
-5.26445 -10.5204 -2.55441
-3.83858 -9.4053 -2.07829
-5.06337 -10.3959 -2.13973
-3.7963 -9.39609 -1.99727
-3.97568 -9.95856 -1.8235
-3.84425 -10.6865 -1.34935
-4.69856 -10.0889 -2.2384
-3.97264 -9.5047 -2.30492
-3.05185 -9.61621 -2.06851
-3.81178 -9.37292 -2.14806
-5.17787 -10.4738 -2.70469
-3.16545 -10.5053 -1.84852
-3.69844 -9.42966 -2.21624
-3.73912 -10.9197 -2.13943
-3.30296 -9.36581 -2.1834
-3.40158 -9.69684 -1.83088
-4.76233 -11.3235 -1.68073
-4.7327 -10.4484 -1.31437
-5.27429 -10.7127 -1.95237
-4.61104 -10.5486 -1.74007
-3.34245 -9.43494 -1.97666
-4.3121 -9.83771 -1.97132
-4.88557 -10.4337 -1.59586
-4.6584 -11.11 -1.81664
-3.33983 -10.0094 -1.75252
-3.22047 -9.5065 -2.00645
-5.28557 -10.6381 -2.12492
-3.96152 -9.54608 -1.84824
-4.45564 -9.90292 -2.09741
-3.79277 -10.3356 -1.39617
-5.04333 -11.2274 -2.3149
-4.9257 -10.2853 -2.18394
-3.60196 -10.9001 -1.9345
-5.11453 -10.6118 -1.73046
-5.24089 -10.5678 -2.14233
-3.57901 -9.20892 -2.40958
-4.99773 -10.3913 -2.60843
-4.84512 -10.2193 -2.14296
-3.87611 -9.61841 -2.40928
-3.83249 -9.71591 -2.57606
-4.64302 -10.0694 -1.91119
-4.14005 -10.9991 -1.64481
-4.05602 -10.1469 -1.37119
-4.66864 -10.413 -1.67589
-3.86061 -9.40329 -2.64808
-4.28633 -9.83969 -1.80598
-3.58244 -9.20197 -2.22281
-4.70514 -11.5846 -2.50366
-4.65131 -10.8026 -1.28286
-3.35049 -9.40445 -1.99249
-5.25845 -10.7489 -2.05045
-4.61626 -10.0892 -1.82424
-3.60745 -9.16815 -2.546
-4.10208 -9.62189 -2.18933
-4.88594 -10.3177 -2.57384
-3.70995 -10.9987 -1.99121
-4.82605 -11.0009 -1.36938
-5.2092 -10.5385 -2.32496
-4.79904 -10.8346 -1.31796
-4.60815 -10.5287 -1.51712
-3.65231 -9.29523 -2.49041
-3.48485 -10.8526 -1.95326
-4.21042 -9.7124 -2.24521
-4.25961 -9.89642 -1.74383
-4.75513 -10.6226 -1.75895
-3.97902 -10.7057 -1.31145
-5.14406 -10.4862 -2.08175
-2.98759 -9.74033 -2.05471
-4.70692 -10.5038 -1.29801
-5.00317 -10.3454 -2.09035
-4.63799 -10.6526 -1.29659
-5.24338 -10.9076 -2.24635
-4.07149 -10.223 -1.31681
-3.61127 -9.31326 -2.26378
-4.84727 -10.47 -1.39309
-4.3521 -11.3385 -1.85948
-4.09987 -9.62161 -2.24101
-3.42847 -10.7844 -1.91466
-5.25308 -10.58 -2.11752
-5.09471 -10.4763 -1.89986
-2.8188 -9.76157 -2.23311
-4.07784 -10.5179 -1.32161
-5.07669 -10.5568 -1.69299
-3.23534 -10.5804 -1.83437
-4.05461 -11.2791 -1.81097
-4.10649 -9.61902 -2.47524
-5.0229 -10.5367 -2.4449
-4.9026 -10.5504 -2.29235
-4.16521 -9.6893 -2.09127
-3.89975 -9.50888 -2.39454
-3.13094 -9.77139 -2.49222
-3.36644 -10.4155 -1.81525
-3.35385 -9.56082 -1.90564
-5.25671 -10.6071 -1.99762
-3.98695 -9.54929 -1.97518
-3.74637 -9.36777 -1.98972
-3.40962 -9.61215 -2.45213
-4.21902 -10.149 -1.33055
-3.11964 -9.76175 -1.93688
-3.02736 -10.216 -1.90076
-4.66933 -10.2068 -1.60019
-4.80634 -10.6084 -1.30211
-5.0224 -10.3846 -2.36626
-3.48506 -9.86279 -1.74488
-4.57701 -10.1243 -1.75825
-3.34232 -10.5847 -1.97934
-4.47597 -11.546 -1.56971
-4.46371 -10.9273 -1.32225
-3.91743 -9.51584 -1.8595
-4.12997 -11.0153 -1.67016
-5.0345 -10.5967 -1.49106
-3.4041 -10.7262 -2.00582
-4.65306 -11.6384 -2.4921
-4.30016 -11.0872 -1.32834
-4.07993 -10.9975 -2.00167
-4.23297 -9.74454 -1.97206
-5.19144 -10.961 -2.46398
-4.64523 -10.1575 -1.70586
-4.604 -10.0399 -1.94273
-4.10141 -9.61511 -2.34319
-3.61896 -9.62994 -2.36118
-5.10822 -10.4494 -2.04146
-3.66602 -9.79504 -1.79608
-5.00121 -10.3593 -2.0419
-2.77136 -9.85431 -2.40421
-4.73422 -10.1707 -1.85123
-3.32361 -9.62576 -1.9086
-4.13454 -9.67654 -1.89508
-3.78165 -9.44864 -1.85188
-4.3149 -10.947 -1.30156
-5.24275 -10.7982 -1.88855
-3.91449 -9.47015 -2.41611
-4.39339 -11.4658 -1.83148
-3.94899 -9.51132 -1.9467
-4.37605 -10.7164 -1.28782
-4.93941 -10.2674 -2.48722
-5.07713 -11.1119 -2.48874
-5.00209 -10.3723 -2.00152
-3.70013 -9.31128 -2.3519
-4.99397 -10.5571 -1.57815
-4.46999 -10.0931 -1.77994
-4.65634 -10.7113 -1.79186
-3.3624 -10.6716 -2.11206
-4.24741 -11.0467 -1.80958
-3.4003 -10.7112 -2.04725
-4.69112 -10.1539 -1.68053
-4.19028 -9.84653 -1.63036
-4.77699 -10.4902 -1.39681
-4.14906 -9.66245 -2.34108
-4.97961 -10.6639 -2.30184
-5.25215 -10.803 -2.10037
-3.25642 -10.5865 -1.79733
-3.63803 -9.19772 -2.53437
-4.49329 -11.0645 -1.83101
-4.40324 -11.1994 -1.35859
-4.41144 -9.86548 -2.34832
-4.10449 -10.3603 -1.30774
-3.22476 -10.2924 -1.82274
-3.66251 -9.65552 -1.76564
-4.81248 -11.4335 -2.45988
-5.0529 -10.4604 -1.84295
-4.35323 -9.81491 -2.34377
-4.20979 -10.6917 -1.31522
-4.96812 -10.3966 -1.79265
-4.76913 -10.8484 -1.78678
-4.48627 -10.427 -1.73097
-4.87411 -10.4882 -2.32322
-4.40791 -9.86285 -2.19024
-3.44109 -9.3472 -1.97781
-4.83022 -11.3381 -1.85615
-4.95772 -10.6373 -2.33648
-4.44106 -10.2195 -1.35588
-3.51042 -10.8564 -2.03978
-4.2121 -10.0204 -1.40182
-3.12598 -9.40268 -2.48407
-5.08467 -10.5576 -2.21154
-3.60384 -9.63406 -1.78806
-5.06998 -10.4533 -2.67781
-4.29848 -9.77524 -2.35448
-3.85745 -9.52908 -2.14067
-3.97435 -9.50388 -2.34287
-5.16338 -10.6476 -1.64032
-5.1347 -10.5364 -2.46809
-3.12535 -9.46921 -2.09615
-2.82147 -9.9819 -2.08553
-3.19287 -9.33646 -2.36484
-4.65079 -10.1025 -1.80071
-5.0296 -11.1724 -2.43789
-3.89929 -11.0374 -2.12862
-5.28831 -10.6213 -2.28042
-4.6918 -10.2778 -1.71737
-4.4351 -10.0737 -1.56305
-3.47295 -10.0961 -1.66905
-2.72203 -9.95432 -2.4831
-4.61302 -10.5013 -1.28804
-3.41331 -9.29697 -2.09664
-3.90117 -9.45547 -1.99524
-5.23698 -10.6502 -1.92615
-3.93591 -10.4781 -1.34077
-4.9288 -11.1806 -2.02964
-4.07568 -9.63095 -2.00267
-5.16536 -10.5919 -1.78601
-4.71172 -11.4721 -2.20943
-4.68115 -11.5067 -2.25589
-3.64178 -9.21552 -2.5918
-5.20631 -10.5952 -1.89135
-4.36069 -10.1999 -1.33639
-4.73863 -10.118 -2.13703
-3.41206 -9.43079 -2.53448
-3.43385 -10.8135 -1.92947
-4.51505 -9.95096 -2.09312
-4.09685 -9.63937 -1.988
-5.14789 -10.5554 -1.79548
-3.09203 -9.40726 -2.19704
-3.39565 -9.25223 -2.16622
-4.63672 -10.4848 -1.63931
-4.63203 -11.5597 -2.26399
-3.32504 -9.81653 -1.83202
-3.7663 -9.50278 -1.84013
-5.09303 -10.4167 -2.10218
-4.49977 -9.96216 -1.89468
-4.90974 -11.3026 -2.25755
-3.0146 -9.69727 -2.0519
-3.95988 -9.51031 -2.04649
-4.87207 -11.237 -2.02442
-5.05861 -10.4169 -2.26289
-4.17529 -9.69092 -2.35999
-4.81625 -11.3615 -1.94283
-2.93704 -9.65012 -2.49012
-5.26189 -10.6928 -1.8373
-3.95811 -10.2518 -1.35852
-3.56863 -9.64413 -2.54727
-3.44748 -10.0551 -1.81669
-3.33583 -9.18765 -2.33974
-2.8687 -9.65176 -2.24533
-4.71741 -10.1934 -1.79149
-4.98602 -10.7452 -1.37663
-5.11925 -10.5006 -1.94558
-4.63957 -10.4924 -1.28566
-4.80763 -10.203 -2.49639
-5.05354 -10.596 -2.28716
-5.04622 -10.4787 -2.26805
-3.19576 -9.32407 -2.3821
-4.12889 -10.9353 -1.94329
-4.50604 -11.5469 -1.79708
-3.40004 -9.16449 -2.35314
-4.157 -9.68143 -2.17588
-5.11673 -10.5668 -2.51032
-4.89198 -11.2885 -2.21492
-4.0934 -9.84949 -1.79771
-4.69286 -10.4526 -1.75624
-3.71898 -10.0672 -1.84653
-4.63515 -10.0776 -1.82919
-5.06586 -10.5395 -1.72509
-4.96085 -11.1461 -1.77251
-4.03131 -9.63809 -1.83278
-4.22659 -11.3092 -1.82869
-3.71164 -9.32526 -2.06352
-4.98909 -10.6369 -1.50891
-5.03049 -11.1232 -2.25572
-3.27808 -9.21164 -2.23742
-4.19489 -10.9413 -1.7044
-4.84215 -10.5068 -1.39216
-5.1087 -10.463 -2.00255
-4.43903 -10.0422 -1.62296
-3.16754 -9.93698 -1.88285
-4.2617 -10.855 -1.71308
-4.22018 -9.7579 -2.50935
-4.25772 -10.7616 -1.84883
-4.96758 -10.7022 -1.38766
-5.31467 -10.8323 -2.27332
-4.77736 -11.4893 -2.54183
-3.92993 -9.4812 -2.11324
-3.4261 -9.34595 -2.5419
-5.31836 -10.6461 -2.34315
-3.50237 -9.63464 -1.76719
-4.44339 -11.4542 -1.74032
-3.99303 -9.56366 -1.93975
-3.95097 -9.61679 -1.70901
-4.47791 -9.93253 -2.05771
-4.40358 -11.3954 -1.84566
-4.50511 -9.98502 -1.84124
-3.15524 -9.32907 -2.27245
-3.88138 -9.42563 -2.54648
-4.21086 -10.1079 -1.33318
-4.6823 -10.1272 -1.80826
-3.84746 -11.0753 -2.05538
-4.21446 -10.8255 -1.84243
-4.57932 -10.0103 -2.35929
-3.81444 -9.4158 -2.34972
-4.40254 -9.84781 -2.14346
-4.85887 -10.462 -2.3258
-3.63748 -9.22858 -2.33006
-2.92703 -9.65741 -2.51242
-2.95982 -9.59958 -2.45107
-2.73907 -9.92734 -2.45305
-2.79214 -9.81418 -2.37043
-3.06709 -9.44012 -2.22639
-3.06209 -9.45831 -2.21151
-3.08627 -9.46091 -2.18759
-2.88524 -9.6582 -2.21148
-2.88484 -9.7189 -2.19164
-3.12874 -9.48776 -2.07891
-2.90942 -9.73727 -2.13042
-3.13873 -9.47806 -2.06606
-3.14073 -9.50723 -2.0461
-2.93105 -9.74042 -2.0816
-2.94682 -9.76639 -2.05462
-2.94337 -9.81528 -2.03083
-3.15225 -9.60675 -1.98314
-2.94435 -9.86136 -2.01447
-2.94095 -9.992 -1.98196
-2.93556 -10.1056 -1.95971
-2.92819 -10.1727 -1.95551
-3.16806 -9.56488 -2.42804
-4.94933 -10.6559 -1.74385
-4.38811 -9.82477 -2.12769
-3.91911 -10.4142 -1.35579
-5.24495 -10.6661 -1.84697
-5.04512 -10.5989 -2.25426
-4.56871 -10.4513 -1.26124
-5.11398 -10.4201 -2.45435
-4.73236 -10.4346 -1.37778
-3.70242 -9.25107 -2.64706
-3.71152 -9.29361 -2.59577
-3.61449 -9.19492 -2.53831
-3.4838 -9.17136 -2.48398
-3.48911 -9.17456 -2.4687
-3.72676 -9.30045 -2.56429
-3.36435 -9.18192 -2.40549
-3.59842 -9.30652 -2.50465
-3.13338 -9.40314 -2.46621
-3.54482 -9.44952 -2.57936
-3.75206 -9.30518 -2.49854
-3.44705 -9.35989 -2.48163
-3.51176 -9.22415 -2.38912
-3.41307 -9.16306 -2.29729
-2.86862 -9.71622 -2.5123
-3.51852 -9.23077 -2.36616
-3.21468 -9.30487 -2.33189
-3.76553 -9.30994 -2.45083
-3.64745 -9.27603 -2.39127
-3.52498 -9.24033 -2.34547
-3.23215 -9.28363 -2.30322
-3.25447 -9.2496 -2.27063
-3.77019 -9.34521 -2.44622
-3.45039 -9.1539 -2.24632
-3.01131 -9.48575 -2.32996
-3.6497 -9.29889 -2.39395
-3.46359 -9.43799 -2.40226
-3.03293 -9.45822 -2.298
-3.75545 -9.33542 -2.39182
-3.09372 -9.37137 -2.21412
-3.54301 -9.28632 -2.27939
-3.29442 -9.24915 -2.17933
-3.6945 -9.3075 -2.30548
-3.69247 -9.27249 -2.27888
-3.59081 -9.21259 -2.19784
-3.4615 -9.20053 -2.16346
-3.28868 -9.2854 -2.17281
-3.69954 -9.29733 -2.25106
-3.45409 -9.25363 -2.15436
-3.25655 -9.41568 -2.18776
-2.82208 -9.70901 -2.24567
-3.59987 -9.21591 -2.15226
-3.45255 -9.29828 -2.13616
-3.69359 -9.36774 -2.23718
-3.61189 -9.2431 -2.13392
-3.28795 -9.38708 -2.12053
-3.67345 -9.47177 -2.24499
-3.47099 -9.29599 -2.09498
-2.7852 -9.87201 -2.22501
-3.66493 -9.50543 -2.25454
-3.61366 -9.2536 -2.0967
-3.28743 -9.40472 -2.09912
-2.76521 -9.91995 -2.22771
-3.32539 -9.35995 -2.05957
-3.73442 -9.33429 -2.15117
-3.34628 -9.35544 -2.03293
-3.74429 -9.32364 -2.13159
-3.63263 -9.26114 -2.07609
-2.72702 -10.0671 -2.23044
-3.51796 -9.26453 -2.00358
-3.33594 -9.37958 -2.01856
-3.75674 -9.3497 -2.09558
-3.52046 -9.30301 -1.98021
-2.8429 -9.88037 -2.10025
-3.66292 -9.30737 -1.99369
-3.75426 -9.35641 -2.04596
-3.52574 -9.35141 -1.94664
-2.82716 -9.99722 -2.0652
-3.77446 -9.38522 -2.03732
-3.34279 -9.50504 -1.94156
-3.14116 -9.64627 -1.96003
-3.67412 -9.35406 -1.94407
-2.81595 -10.0512 -2.05724
-3.53137 -9.38223 -1.92052
-3.15556 -9.6973 -1.94183
-3.54494 -9.41068 -1.89732
-3.364 -9.52487 -1.91471
-3.81392 -9.41605 -1.95135
-3.6985 -9.36359 -1.89965
-3.53461 -9.45663 -1.88098
-3.34444 -9.61249 -1.88652
-3.12361 -9.78879 -1.92191
-3.92581 -9.48502 -1.99232
-3.55568 -9.5097 -1.86035
-3.11607 -9.86655 -1.90957
-3.95226 -9.51056 -1.99877
-3.81071 -9.43686 -1.89632
-3.69601 -9.45535 -1.85619
-3.33775 -9.7056 -1.85686
-3.54958 -9.55371 -1.84458
-3.09496 -9.95578 -1.90346
-3.54715 -9.59457 -1.83112
-3.3331 -9.76767 -1.83776
-3.0732 -10.056 -1.88849
-3.83673 -9.47748 -1.8638
-3.53783 -9.59543 -1.79815
-3.95419 -9.52744 -1.91493
-3.85403 -9.49542 -1.84391
-3.69556 -9.53644 -1.82681
-3.50813 -9.64828 -1.809
-3.04961 -10.1414 -1.89331
-3.96663 -9.5405 -1.89623
-3.30769 -9.9028 -1.83336
-3.52386 -9.69247 -1.80456
-3.86292 -9.51959 -1.81323
-3.86644 -9.54663 -1.78756
-3.98964 -9.57266 -1.84373
-3.50108 -9.86868 -1.80814
-3.49042 -9.91135 -1.80767
-3.30722 -10.0076 -1.78256
-3.9951 -9.57919 -1.80932
-3.30049 -10.0447 -1.78017
-3.64621 -9.87744 -1.80857
-4.00607 -9.6077 -1.80024
-3.64622 -9.92648 -1.81126
-3.42253 -10.1484 -1.83089
-3.4279 -10.1664 -1.81288
-3.18707 -10.414 -1.845
-3.61691 -10.0568 -1.80727
-3.37447 -10.3638 -1.84454
-3.56532 -10.2393 -1.85585
-3.8365 -9.84589 -1.75008
-3.38063 -10.3824 -1.82487
-3.29291 -10.6617 -1.89425
-3.42108 -10.761 -1.95217
-3.29909 -10.7039 -1.89565
-3.56105 -10.8651 -2.02924
-3.30046 -10.7155 -1.85857
-4.05042 -9.68048 -1.665
-4.05914 -9.71191 -1.64531
-3.57793 -10.8932 -1.98604
-3.59706 -10.8767 -1.94801
-4.35136 -11.4947 -1.78599
-4.07423 -9.71732 -1.60674
-4.07616 -9.75552 -1.59657
-3.60857 -10.9369 -1.89416
-4.09114 -9.746 -1.56546
-4.10036 -9.81174 -1.54845
-3.44926 -10.6546 -1.59018
-4.11037 -9.8526 -1.49435
-4.0981 -9.82758 -1.50502
-4.11571 -9.85818 -1.45969
-3.49783 -10.6555 -1.49783
-4.12177 -9.89182 -1.46001
-3.76906 -10.4273 -1.39177
-3.76886 -10.4549 -1.38432
-3.76228 -10.5071 -1.38175
-3.75526 -10.5611 -1.37613
-3.75343 -10.6011 -1.37157
-3.99301 -10.2994 -1.34009
-3.74232 -10.6748 -1.37139
-4.16179 -10.098 -1.35361
-3.95488 -10.3613 -1.34862
-3.96881 -10.4143 -1.33538
-3.96172 -10.5678 -1.32895
-4.15672 -10.2607 -1.30853
-4.14748 -10.3176 -1.31068
-4.16554 -10.3531 -1.31406
-3.92407 -10.7904 -1.33797
-4.09306 -10.9449 -1.34607
-5.04787 -10.3703 -2.05534
-3.98485 -10.8488 -1.34705
-4.64491 -10.5979 -1.29108
-4.79002 -11.4109 -2.19363
-4.01939 -9.56512 -2.0933
-3.75853 -9.29083 -2.67225
-3.64682 -9.25293 -2.59309
-3.47252 -9.29791 -2.62912
-3.74193 -9.30411 -2.64806
-3.43488 -9.15543 -2.48125
-3.56174 -9.2023 -2.49829
-3.65335 -9.26678 -2.54744
-3.57135 -9.1973 -2.44878
-3.27806 -9.22977 -2.42684
-3.88596 -9.41852 -2.63412
-3.68517 -9.28403 -2.4881
-3.58762 -9.20053 -2.43157
-3.49069 -9.16754 -2.34316
-3.8972 -9.44177 -2.5899
-3.90218 -9.42807 -2.58662
-3.34903 -9.1929 -2.30816
-3.79793 -9.36432 -2.49331
-3.90672 -9.45367 -2.54178
-3.37076 -9.17819 -2.27479
-3.70645 -9.31357 -2.39938
-3.80005 -9.39008 -2.49346
-3.51085 -9.16574 -2.25237
-3.08554 -9.41779 -2.33939
-3.52409 -9.18906 -2.25231
-3.40407 -9.16656 -2.19966
-3.90714 -9.45493 -2.49456
-3.6225 -9.25949 -2.30048
-3.53519 -9.19461 -2.23195
-3.90535 -9.508 -2.50804
-3.81819 -9.43826 -2.43485
-3.71666 -9.3501 -2.35348
-3.62273 -9.29419 -2.28703
-3.21109 -9.27176 -2.20795
-3.19679 -9.31339 -2.20288
-3.7386 -9.35004 -2.34085
-3.18697 -9.35629 -2.18803
-4.04784 -9.57773 -2.49692
-3.85367 -9.41495 -2.33763
-3.75063 -9.35419 -2.28439
-3.6071 -9.35507 -2.25438
-3.56268 -9.241 -2.142
-3.35219 -9.31216 -2.17613
-3.17168 -9.39883 -2.18436
-3.44147 -9.68558 -2.41109
-3.39104 -9.29883 -2.14011
-4.0656 -9.58963 -2.44563
-3.87056 -9.45529 -2.34314
-3.76064 -9.35678 -2.24775
-3.43036 -9.7196 -2.41125
-3.19405 -9.39926 -2.14033
-3.85022 -9.44815 -2.29728
-3.66159 -9.31573 -2.19901
-4.15791 -9.69595 -2.52556
-3.74783 -9.69843 -2.42192
-3.75296 -9.44217 -2.24107
-3.56883 -9.25122 -2.09324
-3.21385 -9.40341 -2.09856
-4.15535 -9.66238 -2.48766
-3.64053 -9.65628 -2.34117
-4.17487 -9.68494 -2.48765
-4.05331 -9.59399 -2.40065
-3.98402 -9.513 -2.33322
-3.75563 -9.71277 -2.39489
-3.41905 -9.30692 -2.05908
-3.70293 -9.31369 -2.10185
-3.59048 -9.26703 -2.04772
-3.86662 -9.51077 -2.26638
-3.22569 -9.44849 -2.04082
-3.90767 -9.44843 -2.19616
-3.45055 -9.3096 -1.99952
-4.20934 -9.69699 -2.39385
-3.71976 -9.35062 -2.04663
-3.60553 -9.31006 -1.99444
-4.31592 -9.78021 -2.45458
-4.10378 -9.61868 -2.29062
-4.32121 -9.79071 -2.43615
-4.20253 -9.70026 -2.34448
-4.01767 -9.55014 -2.19967
-3.93327 -9.47012 -2.14024
-4.43578 -9.85977 -2.48978
-3.61359 -9.35733 -1.94507
-3.44943 -9.40427 -1.94582
-4.30864 -9.79288 -2.39773
-4.13632 -9.64261 -2.24457
-4.0351 -9.56107 -2.18571
-3.85135 -9.41495 -2.04918
-4.34558 -9.80927 -2.39478
-4.23195 -9.72147 -2.32545
-3.94484 -9.49063 -2.08947
-3.20857 -9.61017 -1.95793
-4.04259 -9.56772 -2.14447
-3.84708 -9.43771 -2.03725
-3.4442 -9.4476 -1.92483
-3.85973 -9.44922 -2.00061
-3.75641 -9.39853 -1.94778
-4.14197 -9.65143 -2.18903
-3.60562 -9.40707 -1.90633
-3.43893 -9.47836 -1.91294
-3.19151 -9.66422 -1.94396
-4.25836 -9.74069 -2.24532
-4.06085 -9.59354 -2.08728
-3.77245 -9.41815 -1.90179
-3.16632 -9.74753 -1.92792
-4.36813 -9.83435 -2.28618
-4.15468 -9.66177 -2.14362
-4.25694 -9.74316 -2.19844
-3.97673 -9.54413 -1.99436
-3.14757 -9.79965 -1.92453
-4.18124 -9.6709 -2.12474
-3.88049 -9.48422 -1.93075
-3.60786 -9.51315 -1.86014
-3.14304 -9.82278 -1.91592
-4.47812 -9.95999 -2.34111
-4.38834 -9.84412 -2.23966
-4.28497 -9.75989 -2.17903
-4.18436 -9.68005 -2.11302
-4.08598 -9.61746 -2.03967
-3.77209 -9.46646 -1.8548
-3.40997 -9.65295 -1.84538
-4.29788 -9.76276 -2.13941
-4.08937 -9.63327 -2.02383
-4.29408 -9.76791 -2.09795
-3.99391 -9.57053 -1.89894
-3.90218 -9.54712 -1.83806
-3.75362 -9.54446 -1.825
-3.5863 -9.63522 -1.82147
-3.36458 -9.78558 -1.83966
-3.03352 -10.0994 -1.9171
-4.10426 -9.65372 -1.94423
-3.33229 -9.86591 -1.8454
-4.30788 -9.79196 -2.08251
-4.30443 -9.79962 -2.04571
-4.22539 -9.73734 -1.99236
-4.01576 -9.60599 -1.84855
-3.91046 -9.57034 -1.80397
-4.42873 -9.88684 -2.12981
-4.11432 -9.66928 -1.90306
-3.52338 -9.82944 -1.81695
-4.3461 -9.81943 -2.04469
-3.9164 -9.58575 -1.78366
-4.23935 -9.75595 -1.94817
-4.13895 -9.68771 -1.88218
-4.33937 -9.81927 -1.99292
-4.043 -9.64548 -1.79328
-3.92693 -9.59256 -1.75841
-3.66675 -9.86771 -1.82447
-3.47414 -9.97205 -1.81975
-4.45659 -9.90588 -2.04342
-4.15057 -9.70575 -1.83918
-3.27872 -10.101 -1.78579
-4.35362 -9.84576 -1.94258
-4.23717 -9.52863 -1.7557
-4.04501 -9.6691 -1.75954
-3.3844 -10.2103 -1.83924
-4.5735 -10.0138 -2.08856
-4.25786 -9.7919 -1.87863
-4.24074 -9.54575 -1.73986
-4.05972 -9.69113 -1.73527
-4.45406 -9.91357 -1.99435
-3.35771 -10.3074 -1.84057
-4.2592 -9.79834 -1.84674
-4.21031 -9.64395 -1.75704
-3.32213 -10.7074 -1.99568
-3.31763 -10.3896 -1.854
-4.58998 -10.0117 -2.05028
-4.50043 -9.95337 -1.98826
-4.38565 -9.8725 -1.90064
-3.30081 -10.4593 -1.85001
-4.61551 -10.0447 -2.05115
-4.28514 -9.81046 -1.82792
-3.32506 -10.7406 -1.97022
-4.60538 -10.0213 -1.99157
-4.41182 -9.88766 -1.8927
-3.33458 -10.74 -1.95217
-3.4684 -10.8183 -2.00438
-3.74445 -10.9485 -2.11483
-4.40858 -9.91339 -1.79811
-3.72913 -11.0095 -2.11813
-3.29355 -10.6045 -1.7484
-4.63426 -10.055 -1.93511
-3.8867 -11.0256 -2.16022
-3.74472 -11.0038 -2.08855
-4.10298 -9.76572 -1.60263
-4.40425 -9.93915 -1.78868
-3.86916 -11.0952 -2.16805
-4.12029 -10.8398 -2.11091
-4.14178 -10.8008 -2.07905
-3.91705 -11.0241 -2.09679
-4.17012 -10.7513 -2.03655
-3.92474 -11.0369 -2.07544
-4.54886 -10.0522 -1.79982
-3.92647 -11.0576 -2.0633
-3.79172 -11.0205 -1.98479
-4.10971 -9.85217 -1.53414
-3.93181 -11.0671 -2.0483
-4.54359 -10.1009 -1.79595
-4.20818 -10.7333 -1.96213
-3.80397 -11.0578 -1.94347
-4.41737 -10.5302 -1.93443
-4.42528 -10.5275 -1.91826
-4.43562 -10.534 -1.89711
-4.13823 -9.90897 -1.48247
-4.69774 -10.1611 -1.80476
-4.44237 -10.5163 -1.89217
-4.2377 -10.7514 -1.89384
-3.98706 -11.0437 -1.94405
-3.81741 -11.0921 -1.9015
-4.46303 -10.5182 -1.84697
-4.44885 -10.5486 -1.86136
-4.00334 -11.0363 -1.91376
-4.1514 -9.94214 -1.44173
-4.01939 -11.0245 -1.88593
-4.4742 -10.5118 -1.81884
-4.15613 -10.008 -1.40245
-4.51125 -10.5023 -1.74427
-4.25851 -10.8136 -1.79906
-4.51427 -10.4766 -1.74532
-4.06075 -11.0419 -1.79642
-4.28441 -10.0284 -1.43782
-4.28177 -10.8358 -1.77472
-4.16183 -10.042 -1.37631
-3.67494 -10.5724 -1.41406
-4.28444 -10.8657 -1.75945
-3.63615 -10.6771 -1.42366
-4.20667 -11.1521 -1.82204
-4.16087 -11.3533 -1.84836
-4.30089 -10.0976 -1.37815
-3.918 -10.4603 -1.33551
-4.1718 -11.3757 -1.81931
-4.3047 -10.1524 -1.34893
-4.42448 -10.1791 -1.40169
-4.30649 -10.19 -1.33072
-3.82437 -10.747 -1.36721
-4.1028 -10.4055 -1.32473
-4.67046 -10.2701 -1.50435
-4.31323 -10.2027 -1.31315
-4.09502 -10.4477 -1.32069
-4.65785 -10.3498 -1.49971
-4.04335 -10.6467 -1.33123
-4.285 -10.3542 -1.30648
-4.5536 -10.3325 -1.39774
-4.58133 -10.2634 -1.36538
-4.26402 -10.5012 -1.31116
-3.97107 -10.8937 -1.34155
-4.38313 -11.468 -1.73966
-4.24263 -10.5717 -1.31409
-4.40742 -11.4635 -1.71302
-4.45625 -10.3496 -1.29444
-4.22401 -10.6382 -1.31511
-4.55125 -11.5579 -1.79237
-4.59653 -10.3603 -1.3492
-4.18332 -10.7956 -1.32408
-4.54974 -11.5497 -1.73785
-4.14301 -10.9399 -1.3429
-4.70682 -10.4479 -1.38465
-4.59111 -10.405 -1.30185
-4.7084 -10.4486 -1.34336
-4.39088 -10.653 -1.30617
-4.60074 -10.4543 -1.30898
-4.35249 -10.7968 -1.32527
-4.55367 -10.5088 -1.2896
-4.36485 -10.786 -1.30609
-4.31822 -10.9627 -1.33338
-4.55693 -10.7111 -1.30004
-4.84645 -10.5577 -1.3429
-4.71825 -10.615 -1.31289
-4.81334 -10.759 -1.34648
-4.40042 -10.0113 -1.69019
-4.03584 -9.57925 -2.06183
-4.94731 -10.3609 -1.84114
-4.58092 -10.5836 -1.29453
-3.8566 -9.40475 -2.59546
-5.25418 -10.5087 -2.59507
-5.31516 -10.6396 -2.39177
-3.71498 -9.26056 -2.69989
-3.71724 -9.28662 -2.68948
-3.62863 -9.26273 -2.58878
-3.56927 -9.17175 -2.48161
-3.66385 -9.43002 -2.68395
-3.60606 -9.30768 -2.56154
-3.66814 -9.27322 -2.50214
-3.59395 -9.2049 -2.39634
-3.86259 -9.42593 -2.55627
-3.61 -9.22144 -2.35608
-3.2562 -9.28857 -2.33608
-3.79535 -9.37115 -2.44266
-3.36212 -9.18692 -2.25247
-3.71695 -9.52151 -2.49459
-4.01228 -9.55341 -2.49102
-3.74191 -9.51395 -2.45165
-3.91805 -9.49078 -2.43194
-3.72591 -9.34317 -2.30113
-3.34264 -9.65637 -2.45068
-3.308 -9.71103 -2.46413
-4.02191 -9.55722 -2.45341
-3.7254 -9.79166 -2.57019
-3.75165 -9.76736 -2.53718
-3.78737 -9.73026 -2.49568
-3.02299 -9.51865 -2.20793
-4.04617 -9.57202 -2.40098
-3.69591 -9.29816 -2.13823
-2.99771 -9.56424 -2.20544
-4.1412 -9.65961 -2.44007
-3.5591 -9.66391 -2.35806
-3.69644 -9.69473 -2.38391
-2.9937 -9.59482 -2.1827
-4.06697 -9.59671 -2.3466
-3.78447 -9.39084 -2.17466
-4.24889 -9.7438 -2.48194
-3.06396 -9.53802 -2.12308
-3.99608 -9.52234 -2.25476
-4.25722 -9.74872 -2.44233
-4.16182 -9.68637 -2.38707
-3.05185 -9.59659 -2.0871
-4.26241 -9.75565 -2.40068
-4.37601 -9.84174 -2.4423
-3.72733 -9.37338 -2.00909
-3.4216 -9.3978 -1.95504
-3.03638 -9.6535 -2.05817
-4.39113 -9.85788 -2.44255
-4.00648 -9.55045 -2.14778
-4.12173 -9.63901 -2.20352
-3.39951 -9.45419 -1.93991
-4.49026 -9.92325 -2.44638
-4.31302 -9.79541 -2.33826
-3.3918 -9.48203 -1.92714
-4.51572 -9.95435 -2.44762
-4.31578 -9.79068 -2.29379
-4.0535 -9.57404 -2.11332
-4.60521 -10.0218 -2.48722
-4.22414 -9.73132 -2.23013
-4.50777 -9.9476 -2.39623
-4.22975 -9.73471 -2.21576
-4.43379 -9.87808 -2.30183
-4.34488 -9.80905 -2.24036
-4.26048 -9.74692 -2.14637
-4.1593 -9.66571 -2.10291
-5.05479 -10.3278 -2.69495
-4.53888 -9.96332 -2.34298
-3.28865 -9.70142 -1.89734
-4.64096 -10.0486 -2.39253
-4.17128 -9.69504 -2.04985
-5.06245 -10.3674 -2.68882
-4.55119 -9.97018 -2.29654
-4.27045 -9.77225 -2.10621
-5.05742 -10.3695 -2.66859
-4.85509 -10.2112 -2.50276
-5.05705 -10.4061 -2.65903
-4.96548 -10.269 -2.56666
-4.65022 -10.0504 -2.34327
-3.54204 -9.63171 -1.82339
-3.21367 -9.85101 -1.88505
-4.96751 -10.3061 -2.54338
-4.56773 -9.98312 -2.27107
-4.27704 -9.78833 -2.07797
-3.49751 -9.70963 -1.83021
-3.19476 -9.88882 -1.88183
-5.02106 -10.523 -2.70147
-4.85898 -10.2097 -2.44696
-4.48546 -9.9162 -2.18552
-3.74069 -9.59586 -1.79062
-4.66727 -10.0646 -2.29751
-3.48537 -9.74509 -1.8197
-4.58563 -9.99109 -2.22521
-4.49428 -9.92209 -2.14958
-5.10406 -10.418 -2.58763
-4.88464 -10.2175 -2.42426
-4.68274 -10.0667 -2.28316
-4.59302 -10.0024 -2.19399
-4.89116 -10.2209 -2.38952
-4.78499 -10.1644 -2.339
-4.687 -10.0818 -2.27235
-4.31474 -9.81863 -1.99681
-4.11671 -9.68439 -1.88254
-4.01666 -9.63409 -1.82614
-4.12289 -9.6882 -1.86221
-4.0251 -9.64182 -1.80451
-3.69005 -9.71951 -1.77713
-4.79558 -10.1672 -2.29192
-4.6105 -10.0156 -2.14919
-4.41898 -9.88873 -2.03786
-4.22246 -9.76071 -1.90971
-3.90768 -9.63681 -1.75017
-3.44711 -9.86252 -1.78179
-5.11227 -10.4096 -2.50211
-4.90724 -10.2395 -2.3438
-3.5443 -9.9458 -1.83855
-3.4323 -9.89505 -1.77843
-4.97626 -10.4071 -2.47372
-4.70807 -10.0953 -2.19527
-3.51527 -10.0058 -1.83832
-3.41295 -9.93365 -1.7774
-4.95073 -10.5004 -2.49742
-4.94887 -10.5316 -2.48827
-4.90434 -10.2467 -2.30041
-4.81543 -10.1891 -2.23671
-4.71074 -10.1053 -2.14928
-4.6411 -10.0422 -2.08991
-4.54401 -9.97241 -2.04508
-4.45178 -9.92389 -1.95043
-5.13753 -10.4242 -2.4297
-4.81622 -10.194 -2.19203
-4.64973 -10.0621 -2.04848
-4.06094 -9.89725 -1.808
-3.66885 -10.0764 -1.81157
-5.15459 -10.469 -2.44825
-4.95168 -10.2641 -2.25101
-4.36591 -9.8728 -1.8594
-4.26312 -9.84296 -1.79269
-4.04431 -9.9491 -1.82021
-5.14717 -10.4595 -2.39125
-5.05028 -10.3611 -2.30652
-4.74974 -10.1449 -2.0867
-4.4664 -9.94843 -1.89233
-4.55661 -10.0112 -1.943
-3.32086 -10.6513 -1.99849
-3.27136 -10.4711 -1.86894
-4.95273 -10.2924 -2.19553
-4.65038 -10.075 -2.0034
-3.64589 -10.8989 -2.18688
-5.14969 -10.4705 -2.34524
-5.05147 -10.3929 -2.29028
-4.67061 -10.0911 -1.98976
-4.36984 -9.91794 -1.80624
-4.75826 -10.1613 -2.04392
-3.21904 -10.5995 -1.85204
-4.86536 -10.2435 -2.0916
-4.57649 -10.0359 -1.89822
-4.36388 -9.96671 -1.78624
-4.16464 -9.83755 -1.6787
-4.9539 -10.3043 -2.15076
-4.66927 -10.0988 -1.9461
-4.49135 -9.97354 -1.85355
-4.17259 -9.85251 -1.65322
-4.7597 -10.2014 -1.99513
-4.69095 -10.1135 -1.94556
-4.59651 -10.0475 -1.89049
-4.07941 -9.79129 -1.59132
-3.21127 -10.6506 -1.82324
-5.00101 -10.613 -2.2952
-4.8896 -10.2692 -2.04158
-4.60289 -10.066 -1.8447
-5.03117 -10.5768 -2.26536
-4.992 -10.3259 -2.11295
-4.68988 -10.1235 -1.90931
-4.70364 -10.1463 -1.88853
-4.18509 -9.90176 -1.59418
-5.08853 -10.4503 -2.1772
-4.80484 -10.2141 -1.94788
-4.00233 -11.0135 -2.14581
-5.10814 -10.423 -2.14099
-4.61124 -10.0999 -1.79139
-4.01677 -11.0228 -2.11111
-3.84189 -11.0595 -2.07645
-4.7103 -10.1612 -1.84575
-4.62811 -10.0891 -1.76492
-4.02567 -11.0317 -2.08797
-4.72285 -10.1847 -1.83436
-4.53894 -10.2916 -1.82957
-4.05312 -11.0132 -2.04502
-5.01582 -10.3867 -1.98547
-4.81915 -10.2477 -1.85302
-5.1358 -10.4745 -2.05683
-5.05026 -10.4121 -1.98679
-4.93158 -10.3281 -1.92113
-4.84225 -10.2625 -1.84414
-5.29262 -10.6966 -2.05906
-3.86746 -11.1116 -1.99346
-3.75937 -11.0212 -1.90997
-4.94228 -10.3433 -1.88663
-3.74843 -11.0493 -1.8862
-4.23532 -9.9469 -1.47254
-5.26743 -10.612 -2.14853
-4.7457 -10.2205 -1.7439
-5.25691 -10.6053 -2.09797
-5.03795 -10.4223 -1.93993
-5.15822 -10.5119 -1.99914
-4.22858 -10.0027 -1.44582
-4.57481 -10.3487 -1.72552
-5.2679 -10.6083 -2.04967
-4.68286 -10.415 -1.77805
-3.94246 -11.1163 -1.84838
-4.85803 -10.3139 -1.74987
-4.0652 -10.1169 -1.37691
-5.14452 -10.5156 -1.95128
-4.61761 -10.6182 -1.80626
-5.17717 -10.5463 -1.9374
-4.59979 -10.6773 -1.81216
-4.24779 -10.8406 -1.78078
-3.96054 -11.1097 -1.80053
-5.27518 -10.6575 -2.00581
-4.57114 -10.7632 -1.82631
-4.65723 -10.2622 -1.59145
-4.35449 -10.1121 -1.42114
-4.23683 -10.108 -1.34709
-4.03912 -10.2059 -1.35802
-5.2877 -10.6436 -1.98956
-3.66925 -10.5994 -1.40623
-5.18784 -10.5757 -1.90373
-4.98698 -10.4286 -1.75899
-4.78496 -10.6111 -1.78593
-4.25078 -10.8971 -1.73096
-3.98679 -11.1431 -1.74906
-4.3541 -10.1157 -1.39444
-5.27376 -10.6989 -1.98391
-4.77153 -10.6609 -1.7906
-4.54073 -10.8911 -1.82293
-4.99257 -10.4496 -1.73337
-4.51666 -10.9691 -1.83188
-4.23392 -10.1597 -1.32937
-4.68681 -10.3067 -1.52966
-4.12367 -11.2122 -1.79069
-3.9984 -11.1544 -1.70345
-4.22273 -10.195 -1.32516
-5.21536 -10.6181 -1.84788
-4.72395 -10.8409 -1.80533
-5.10638 -10.5345 -1.77546
-4.9931 -10.4614 -1.70271
-4.70517 -10.9104 -1.8119
-4.49034 -11.0934 -1.82247
-4.19121 -10.2855 -1.31917
-3.9265 -10.505 -1.32674
-5.10178 -10.5452 -1.74523
-4.99533 -10.4878 -1.69084
-4.69635 -10.9526 -1.81073
-4.44673 -11.2086 -1.83366
-4.67232 -10.3746 -1.52172
-4.49049 -10.2232 -1.38132
-3.9402 -10.5045 -1.31488
-4.67485 -11.0264 -1.82103
-4.43767 -11.2746 -1.8479
-4.63957 -10.4672 -1.54768
-4.36415 -10.2362 -1.32474
-5.22224 -10.6475 -1.80546
-4.41519 -11.3359 -1.85175
-4.35788 -10.2387 -1.29987
-4.8756 -10.8996 -1.7971
-4.35393 -10.2974 -1.30434
-4.11377 -10.4907 -1.31646
-4.88258 -10.9031 -1.78129
-4.6393 -11.1833 -1.82251
-4.23854 -11.4503 -1.78717
-4.48586 -10.3074 -1.33984
-4.08072 -10.57 -1.32076
-5.13048 -10.5857 -1.70644
-4.86026 -10.9871 -1.79339
-4.5988 -10.3147 -1.38066
-4.31151 -10.406 -1.31101
-5.23694 -10.6674 -1.76772
-4.72482 -11.3874 -1.91026
-4.60277 -11.2928 -1.81836
-4.48447 -10.3363 -1.32534
-4.00073 -10.7539 -1.33659
-5.24344 -10.7015 -1.74487
-3.94426 -10.8753 -1.3534
-4.80908 -11.1957 -1.81491
-4.51814 -11.5891 -1.88534
-4.56454 -11.4907 -1.83632
-4.4642 -10.4098 -1.29218
-5.25693 -10.6913 -1.71826
-4.44307 -10.5096 -1.29833
-4.17337 -10.7843 -1.31774
-5.05537 -10.6164 -1.54509
-5.15311 -10.6607 -1.60625
-4.73929 -10.4636 -1.3505
-5.16872 -10.6949 -1.59467
-4.9537 -10.5626 -1.47147
-4.38297 -10.6902 -1.30082
-4.58769 -10.5441 -1.28596
-4.32323 -10.813 -1.30862
-4.96461 -10.5949 -1.43705
-4.31866 -10.8656 -1.31366
-4.73141 -10.549 -1.32269
-5.07278 -10.6942 -1.48193
-4.49397 -10.8366 -1.31618
-4.97144 -10.6488 -1.40199
-4.69766 -10.6635 -1.3061
-4.83763 -10.701 -1.33324
-4.80582 -10.8041 -1.35468
-4.97035 -10.407 -2.2863
-4.94894 -11.1565 -2.03602
-4.59006 -10.1451 -1.77525
-5.13644 -10.5172 -1.89272
-4.53145 -10.8707 -1.31122
-3.73717 -9.26563 -2.66117
-3.62138 -9.21054 -2.61086
-3.80502 -9.3526 -2.69788
-3.62654 -9.26389 -2.55576
-3.44324 -9.27316 -2.54441
-3.57658 -9.49072 -2.69048
-3.46483 -9.16971 -2.34744
-3.76964 -9.41452 -2.42775
-3.37111 -9.19421 -2.1882
-3.93233 -9.45157 -2.4352
-3.9408 -9.60681 -2.55595
-3.37097 -9.21738 -2.16431
-3.34186 -9.55075 -2.40805
-3.53912 -9.21014 -2.14656
-3.93274 -9.49161 -2.39466
-3.83179 -9.60239 -2.45268
-3.17073 -9.72382 -2.4825
-3.6555 -9.78909 -2.56056
-3.28433 -9.33307 -2.1611
-3.25848 -9.36584 -2.16195
-3.24368 -9.39603 -2.15052
-3.81152 -9.49933 -2.28199
-3.66577 -9.66226 -2.37395
-3.27663 -9.38727 -2.11517
-3.38963 -9.34894 -2.00259
-4.3569 -9.82666 -2.48437
-4.36192 -9.82144 -2.45414
-4.4637 -9.92572 -2.49339
-5.21495 -10.5145 -2.34494
-3.31146 -9.496 -1.9556
-4.55717 -10.0421 -2.51738
-3.28954 -9.53214 -1.9477
-3.26175 -9.56863 -1.94722
-4.60553 -10.0144 -2.44117
-4.42685 -9.86993 -2.31093
-3.88283 -9.4855 -1.9404
-4.52048 -9.95547 -2.35144
-4.4268 -9.88217 -2.30001
-3.584 -9.47498 -1.86653
-4.61604 -10.0373 -2.40411
-4.99907 -10.3152 -2.64498
-4.09288 -9.62311 -2.01072
-4.71248 -10.112 -2.44893
-5.10071 -10.3668 -2.70537
-4.79192 -10.2178 -2.52378
-4.36687 -9.83536 -2.18231
-4.70102 -10.1034 -2.40072
-3.52301 -9.59491 -1.82951
-5.1049 -10.4158 -2.65479
-4.91385 -10.2909 -2.53086
-4.29012 -9.78033 -2.06833
-5.10994 -10.4436 -2.6373
-5.21275 -10.5379 -2.70983
-4.85403 -10.2018 -2.39402
-5.1281 -10.4385 -2.59188
-5.01735 -10.3638 -2.53984
-4.93216 -10.3063 -2.47753
-4.65602 -10.0641 -2.24758
-5.24281 -10.5129 -2.648
-5.14035 -10.4556 -2.59002
-4.94771 -10.3005 -2.45003
-4.76204 -10.151 -2.29679
-3.42999 -9.7587 -1.79258
-5.04448 -10.373 -2.4928
-4.69002 -10.0719 -2.2472
-5.14659 -10.4485 -2.54489
-3.68282 -9.70096 -1.76003
-5.05545 -10.3922 -2.49213
-4.96088 -10.3125 -2.40216
-4.33157 -9.82504 -1.95601
-4.09708 -9.61057 -1.74886
-3.59192 -9.80161 -1.79057
-5.06311 -10.3979 -2.44656
-3.54463 -9.86026 -1.80013
-5.1561 -10.4627 -2.49832
-4.14305 -9.72449 -1.80629
-3.16931 -10.0649 -1.84384
-4.96771 -10.3375 -2.37461
-4.15224 -9.74908 -1.79835
-4.97073 -10.3513 -2.34673
-4.80484 -10.1765 -2.21197
-3.44766 -9.99179 -1.80871
-5.28256 -10.5421 -2.5315
-5.0562 -10.4511 -2.43122
-4.91328 -10.2523 -2.24752
-3.4292 -10.0231 -1.80405
-4.03407 -9.90598 -1.83101
-3.5676 -10.0812 -1.82706
-5.06667 -10.455 -2.38483
-5.00121 -10.3615 -2.29882
-4.92007 -10.2693 -2.20761
-4.82527 -10.2091 -2.14194
-5.28171 -10.5945 -2.50024
-5.19835 -10.5135 -2.38674
-5.09227 -10.4518 -2.33775
-4.19679 -9.91986 -1.79453
-3.3824 -10.3123 -1.87708
-3.36496 -10.3445 -1.87159
-5.1179 -10.4527 -2.29103
-5.28793 -10.6092 -2.43989
-5.23227 -10.5031 -2.3335
-4.94246 -10.4911 -2.29514
-4.19902 -9.82083 -1.64863
-3.34447 -10.4073 -1.84671
-5.3152 -10.6487 -2.44791
-4.90521 -10.5967 -2.32416
-4.75591 -10.1724 -2.00723
-5.2411 -10.5174 -2.3068
-5.12245 -10.4762 -2.2542
-4.96213 -10.5114 -2.23692
-4.40556 -9.94623 -1.73741
-5.1442 -10.7262 -2.38829
-4.76067 -10.2151 -1.96062
-4.30498 -9.90829 -1.65919
-5.15488 -10.7057 -2.34494
-5.02853 -10.698 -2.32236
-4.97078 -10.3333 -2.08667
-4.87428 -10.2642 -2.00186
-5.04643 -10.679 -2.29535
-5.07365 -10.4006 -2.1002
-4.76341 -10.2336 -1.94133
-4.29359 -9.95331 -1.63739
-5.33368 -10.6677 -2.33103
-5.19885 -10.6618 -2.30367
-5.07094 -10.6465 -2.2628
-4.88564 -10.2737 -1.99935
-4.45856 -10.0993 -1.76976
-5.10837 -10.59 -2.21766
-4.80576 -10.2188 -1.89905
-4.50731 -10.0479 -1.75246
-4.23152 -9.87305 -1.54967
-5.34453 -10.6891 -2.29314
-5.15254 -10.4687 -2.13523
-4.48886 -10.0836 -1.73058
-4.40518 -10.0189 -1.65995
-4.29306 -9.97818 -1.61609
-5.25957 -10.5683 -2.20858
-5.17177 -10.5038 -2.13515
-5.08281 -10.4252 -2.06415
-4.50719 -10.1075 -1.69575
-4.51537 -10.0792 -1.68859
-4.4153 -10.0384 -1.65208
-5.18797 -10.5156 -2.10333
-4.91124 -10.3192 -1.90044
-4.43756 -10.0143 -1.60997
-5.34642 -10.7054 -2.24328
-4.52457 -10.1026 -1.65322
-4.42203 -10.0654 -1.59184
-3.60834 -10.9059 -1.89688
-4.54344 -10.1092 -1.64375
-5.26796 -10.6355 -2.15672
-5.21234 -10.5515 -2.04419
-4.91919 -10.3301 -1.86528
-4.72086 -10.2393 -1.73523
-4.92522 -10.3413 -1.84551
-4.64987 -10.1704 -1.66469
-4.52818 -10.1317 -1.62286
-5.02133 -10.4198 -1.89876
-4.52721 -10.1531 -1.60672
-4.42641 -10.0989 -1.55585
-4.70338 -10.3071 -1.72842
-4.61783 -10.2222 -1.66375
-5.21704 -10.5685 -2.00112
-4.95047 -10.37 -1.80367
-4.82512 -10.3242 -1.76363
-4.67848 -10.3454 -1.7357
-5.02625 -10.4458 -1.86508
-4.68524 -10.3481 -1.72141
-5.29295 -10.6924 -2.07558
-4.69965 -10.3539 -1.69424
-5.21938 -10.6044 -1.94714
-4.96193 -10.4091 -1.75877
-4.85704 -10.3685 -1.70314
-4.68649 -10.3872 -1.68912
-4.01318 -10.1596 -1.36117
-5.14549 -10.5281 -1.86742
-5.05659 -10.4752 -1.80115
-4.71007 -10.5932 -1.77901
-5.2365 -10.6202 -1.94788
-5.15869 -10.5605 -1.84286
-5.06441 -10.4988 -1.78888
-4.95479 -10.4428 -1.7332
-4.66808 -10.6777 -1.79468
-4.38481 -10.1038 -1.373
-4.66389 -10.2899 -1.53768
-5.22484 -10.6643 -1.92874
-4.96054 -10.465 -1.70184
-4.60539 -10.7572 -1.80309
-5.22481 -10.6878 -1.90884
-5.06691 -10.5149 -1.74332
-4.62863 -10.7876 -1.78722
-4.18842 -10.2075 -1.31512
-4.60045 -10.849 -1.79446
-4.28714 -11.1158 -1.85019
-4.26521 -11.166 -1.85129
-3.9875 -11.1206 -1.73517
-4.78062 -10.8124 -1.78999
-4.50069 -10.2129 -1.34871
-5.17482 -10.6043 -1.75919
-4.00494 -11.1242 -1.6939
-4.35741 -10.2023 -1.29961
-4.06862 -10.4208 -1.30881
-4.01387 -10.5091 -1.30622
-5.26138 -10.7126 -1.8012
-5.10628 -10.5603 -1.65145
-4.60262 -10.3052 -1.35312
-4.25977 -10.3974 -1.30349
-5.19615 -10.6602 -1.69638
-4.64264 -11.153 -1.81514
-4.1996 -11.3998 -1.7918
-3.85255 -10.756 -1.34139
-5.09964 -10.6105 -1.64183
-4.34239 -11.4564 -1.82852
-4.20956 -11.4067 -1.76937
-5.11255 -10.6145 -1.61107
-5.20522 -10.6703 -1.66109
