-11.7509 -16.1177 -1.25179
-12.2402 -16.0726 -2.38491
-11.5659 -15.5481 -1.89387
-11.3556 -15.4043 -1.84263
-11.1529 -15.1481 -2.39906
-11.2843 -15.29 -2.57367
-11.1791 -15.6348 -1.27747
-12.1805 -17.5267 -2.14291
-11.9202 -15.8405 -2.19343
-12.1012 -16.0286 -1.76827
-10.4223 -14.8528 -1.51074
-11.2688 -15.3491 -1.8384
-10.5043 -14.6403 -2.49521
-11.3577 -16.5907 -1.26458
-11.6676 -15.6129 -2.62186
-9.88573 -14.6807 -1.7664
-9.23007 -14.4202 -2.15966
-10.8775 -15.0841 -1.72484
-11.7223 -16.0583 -1.30317
-12.5769 -17.0236 -1.99493
-12.3853 -16.2419 -2.48223
-9.72963 -14.2184 -1.96115
-10.3884 -14.7943 -1.59868
-11.0206 -15.8293 -1.53218
-9.62808 -16.085 -1.75703
-9.38754 -15.2201 -1.83457
-11.0709 -15.1319 -2.03891
-10.4949 -14.7994 -1.74888
-11.9154 -16.1097 -1.55243
-11.1743 -15.5409 -1.39516
-9.1636 -14.2633 -2.09645
-11.5085 -16.7673 -1.29135
-9.13652 -14.4317 -2.00083
-10.5974 -16.6986 -1.30463
-9.72157 -14.5641 -1.76167
-11.6596 -15.6837 -1.67928
-12.4025 -16.3078 -1.84291
-10.3554 -14.5118 -2.73919
-9.81114 -14.5546 -1.73758
-9.2979 -14.0395 -2.5405
-9.06564 -14.8409 -1.93411
-9.66719 -14.4323 -1.80542
-9.83961 -14.1239 -2.33817
-12.152 -15.9901 -2.33964
-9.17081 -14.1407 -2.52099
-8.88826 -14.4731 -2.6206
-9.25478 -14.5515 -1.8973
-12.5776 -16.6704 -1.75242
-11.5072 -15.4571 -2.44849
-12.5127 -16.7493 -1.57052
-10.9348 -15.0279 -1.93681
-12.3631 -17.3091 -2.41998
-11.0994 -16.2603 -1.24327
-11.2173 -15.241 -2.25105
-10.8692 -16.7898 -1.31851
-12.3869 -17.1861 -2.67088
-10.8261 -15.2924 -1.38789
-10.9766 -17.2497 -1.87811
-9.83498 -14.5152 -2.28159
-12.1774 -16.0271 -1.91115
-12.5578 -16.9773 -1.83816
-10.0045 -16.2091 -1.38032
-10.5074 -14.7148 -1.89252
-9.97218 -14.4889 -1.75369
-9.81303 -14.203 -1.99837
-9.80179 -14.1189 -2.39752
-9.18367 -14.1591 -2.47925
-10.7974 -16.977 -1.91807
-12.6466 -16.7691 -1.84857
-10.2946 -16.4085 -1.30968
-12.5 -16.4493 -1.7966
-12.0009 -16.0726 -1.69857
-9.57938 -14.0538 -2.2598
-12.4279 -16.4571 -1.74285
-12.0147 -16.2077 -2.29546
-10.9372 -16.2384 -1.25251
-11.5544 -15.5007 -2.33764
-9.41 -14.0456 -2.44193
-12.3829 -17.2948 -2.14684
-11.3209 -15.5509 -1.55302
-11.9974 -16.2075 -2.5592
-9.21788 -15.5981 -1.8255
-12.5048 -16.4921 -1.75208
-10.7618 -16.9914 -1.89731
-10.0744 -14.3277 -2.50126
-9.50751 -14.5042 -1.85468
-11.5108 -15.4697 -2.39996
-11.7927 -15.8186 -1.7602
-12.1448 -15.9634 -2.54974
-12.1007 -17.1085 -1.35516
-9.20644 -15.0416 -1.85577
-9.84122 -16.2002 -1.94638
-10.2284 -14.4321 -2.54678
-10.7241 -14.7008 -1.70445
-9.56036 -16.058 -1.84748
-12.774 -16.7211 -2.1582
-11.2945 -16.2752 -1.25267
-11.2211 -15.2542 -2.10532
-11.1227 -15.1841 -1.99403
-12.0545 -16.0042 -1.83895
-10.9165 -15.4424 -1.35587
-10.4018 -14.5812 -2.62654
-9.94832 -16.3019 -1.95464
-12.7842 -16.7527 -2.45321
-9.28261 -14.0874 -2.49924
-11.647 -15.5833 -2.43263
-11.7309 -16.0519 -1.33122
-12.4275 -16.1975 -2.70514
-12.3084 -16.1596 -2.40111
-12.1333 -17.5369 -1.90944
-12.1092 -16.0449 -1.83631
-10.1279 -14.3321 -2.54511
-12.2051 -16.0509 -2.09555
-12.317 -16.1577 -2.04269
-11.9013 -15.8244 -1.94776
-11.9037 -15.8069 -2.5942
-11.9827 -15.9808 -1.73358
-10.7957 -14.8664 -2.19532
-11.9965 -16.5444 -1.23481
-12.661 -16.5873 -1.93559
-11.9174 -16.1136 -1.71404
-10.6028 -14.7658 -1.95566
-12.3504 -16.3409 -1.7316
-10.1647 -16.4706 -2.23859
-11.7733 -15.7346 -1.96716
-11.5455 -17.3281 -1.39209
-11.7094 -16.1643 -1.25395
-12.7842 -16.7426 -2.2161
-11.4598 -15.4521 -2.00123
-12.5409 -16.4782 -1.81586
-10.4398 -16.447 -1.98549
-9.47379 -14.0391 -2.19681
-11.9576 -17.7199 -2.11821
-12.7496 -16.7678 -2.35724
-12.4512 -16.2603 -2.31348
-11.4039 -15.4576 -1.84122
-10.2606 -14.4959 -1.94276
-12.5762 -16.3825 -2.277
-12.1125 -16.1494 -1.69344
-12.4596 -16.246 -2.64198
-9.74422 -16.1564 -1.59606
-11.005 -15.0635 -2.58389
-12.4626 -16.2566 -2.59988
-9.14134 -14.2903 -2.09275
-11.5962 -15.7056 -1.60836
-10.6537 -16.0654 -1.26629
-10.1243 -14.3086 -2.70956
-9.80354 -16.1536 -2.08058
-10.3468 -14.5354 -2.29251
-11.2841 -16.6979 -1.26955
-10.9772 -15.0174 -2.31743
-11.9676 -15.8922 -1.99641
-9.7437 -14.0729 -2.36198
-11.6868 -15.617 -2.04357
-9.94911 -16.2747 -1.98428
-12.4065 -17.2726 -2.68892
-9.32814 -14.5463 -1.90002
-11.6372 -15.5714 -2.43279
-11.6253 -15.5829 -2.08958
-10.5722 -15.14 -1.36958
-10.7184 -16.7642 -1.28281
-12.5855 -16.9199 -2.35743
-12.6168 -16.601 -1.83639
-9.40369 -15.2233 -1.80119
-10.4881 -14.6273 -2.53521
-9.46773 -14.0242 -2.20775
-9.94777 -14.2223 -2.64429
-9.96989 -14.5178 -2.72441
-11.8537 -15.8852 -1.78139
-12.3148 -16.1142 -2.70001
-10.9507 -15.0068 -2.44439
-10.7632 -16.9721 -1.9405
-12.4726 -16.3892 -1.88593
-9.43915 -14.0851 -2.13005
-12.167 -16.0407 -2.43811
-12.6219 -16.7645 -1.90444
-10.7532 -15.5681 -1.24162
-12.6161 -16.752 -1.79699
-12.4117 -16.3574 -2.3289
-9.92229 -14.2533 -2.00426
-9.52216 -14.026 -2.16
-12.3645 -16.2134 -2.50307
-9.66463 -14.1526 -2.04493
-11.4534 -15.4225 -2.5927
-12.4464 -16.159 -2.74865
-10.5686 -14.6921 -2.50044
-11.3431 -15.5097 -1.65163
-12.4477 -17.33 -2.63135
-12.1048 -17.5966 -2.45233
-12.7372 -16.7413 -2.03343
-12.4858 -17.2149 -2.55993
-11.9118 -17.4075 -1.47783
-11.0914 -15.5005 -1.29374
-9.77765 -16.0979 -1.4645
-12.4523 -16.265 -2.14956
-9.96942 -14.3538 -1.84263
-10.1538 -14.3539 -2.04427
-9.83444 -14.1957 -2.08649
-9.47949 -15.1048 -1.81115
-10.6633 -14.9584 -1.58913
-12.3814 -16.6409 -1.36449
-10.224 -14.4455 -2.30238
-11.9633 -15.8447 -2.44949
-10.1594 -14.5531 -1.73917
-10.3925 -14.6287 -1.81786
-10.1929 -14.4215 -1.95928
-11.3622 -15.3428 -2.29139
-10.2388 -16.3491 -1.29527
-12.1951 -16.0772 -1.96215
-11.7519 -15.6646 -2.05744
-11.2404 -15.4542 -1.54741
-12.2222 -16.1016 -1.99086
-10.3415 -14.7642 -1.58599
-9.89963 -14.4031 -1.76212
-10.9177 -15.3231 -1.28747
-11.3519 -15.5079 -1.68515
-10.011 -14.2713 -2.76109
-12.4415 -16.4431 -1.74415
-12.6264 -16.7077 -1.83587
-11.3365 -15.3778 -1.8428
-12.3171 -17.3272 -2.45411
-9.35037 -14.2367 -2.03175
-10.7348 -14.8217 -2.34035
-11.3415 -15.3422 -2.59619
-10.0125 -14.2496 -2.1459
-10.1251 -14.5225 -1.71745
-9.80865 -14.3626 -2.47371
-9.14005 -14.5113 -1.97071
-9.79523 -14.1645 -2.09351
-11.8481 -16.2046 -1.63015
-11.5564 -16.6301 -1.61306
-10.2089 -16.4284 -2.08044
-11.1925 -16.9501 -1.89803
-11.1914 -15.2551 -2.6264
-12.2099 -16.6971 -1.29077
-11.8411 -15.8185 -1.86113
-9.15834 -14.4059 -1.99992
-12.6124 -16.4413 -2.14278
-11.7164 -15.6483 -2.14649
-10.6487 -14.7457 -1.69161
-10.3362 -14.7076 -1.58438
-10.7126 -14.8081 -2.39938
-9.5072 -14.0745 -2.09938
-12.1072 -16.0048 -1.99696
-12.7014 -16.5092 -2.49999
-10.8588 -15.857 -1.23484
-12.742 -16.8539 -2.403
-11.7901 -15.902 -1.6193
-11.5975 -15.6021 -1.84034
-9.09062 -14.5031 -1.98295
-10.6708 -14.7713 -2.1984
-10.9373 -15.1129 -1.76061
-11.9909 -16.2861 -1.32806
-10.6608 -14.8031 -1.944
-10.0595 -14.2558 -2.64675
-9.61153 -14.3156 -2.00562
-10.8067 -14.9142 -1.90187
-10.6421 -14.9556 -1.56007
-12.0195 -15.961 -2.50809
-10.4465 -14.8562 -1.73926
-11.9739 -17.743 -2.47122
-12.0003 -16.0899 -1.69799
-10.2851 -14.4615 -2.04427
-11.5168 -16.7358 -1.25307
-12.3702 -16.5248 -2.5165
-10.646 -16.8681 -1.93205
-9.55281 -14.5547 -1.83212
-9.81087 -16.171 -1.99501
-12.6955 -16.5562 -1.9926
-11.7792 -15.8544 -1.73974
-12.0396 -16.9472 -1.30333
-9.80809 -14.1252 -2.35699
-9.2057 -14.4531 -2.15697
-11.5506 -16.5711 -1.6977
-11.163 -15.1708 -2.45151
-11.5629 -15.513 -2.59922
-11.899 -16.0478 -1.63061
-10.4067 -14.6478 -2.54023
-10.9666 -15.4587 -1.21104
-10.9008 -17.1161 -2.09485
-11.5975 -15.6182 -1.80016
-9.47237 -14.4128 -1.86224
-10.3723 -15.7021 -1.30814
-12.3645 -16.4267 -2.35516
-11.6744 -16.8571 -1.24923
-12.5012 -16.4081 -1.89159
-11.9659 -17.2074 -1.35934
-11.3711 -15.4686 -1.7092
-12.1227 -15.9715 -2.36266
-12.4051 -16.7437 -1.45876
-11.8695 -15.8617 -1.71845
-10.7041 -15.0623 -1.49539
-9.98267 -16.2814 -2.16904
-10.7883 -16.1765 -1.25393
-11.6456 -15.6115 -1.94541
-9.36961 -14.7672 -1.82839
-11.8147 -15.7393 -2.49707
-11.9471 -15.8023 -2.54008
-10.9431 -14.9938 -2.49496
-10.2871 -14.5095 -2.15446
-11.6993 -15.6261 -2.01499
-12.0337 -16.1892 -1.53864
-12.7775 -16.6644 -2.20503
-11.9045 -15.9001 -1.79023
-11.0148 -15.0562 -2.54616
-10.8905 -17.097 -2.12545
-9.74707 -14.1148 -2.24375
-10.6155 -16.2699 -1.27642
-10.9969 -15.4597 -1.24249
-11.7786 -15.9458 -1.64812
-11.7999 -15.7357 -2.59123
-10.6212 -15.0594 -1.35835
-11.2554 -15.706 -1.59883
-11.4302 -15.5366 -1.77126
-12.1209 -16.0752 -2.21367
-8.62691 -14.8579 -2.26294
-11.0694 -15.474 -1.25872
-11.5479 -15.6881 -1.6958
-10.3663 -14.6307 -1.75847
-10.2068 -14.4164 -2.54169
-9.83765 -14.2636 -2.66322
-12.4767 -17.1983 -2.58468
-10.2531 -16.5599 -1.89241
-11.1797 -15.2639 -1.91217
-12.7691 -16.6848 -2.2859
-10.8685 -14.9378 -2.29824
-11.9702 -15.8896 -2.03581
-11.9555 -16.7585 -1.28051
-11.1362 -15.7921 -1.19773
-9.19156 -14.2928 -2.03996
-12.6478 -16.9113 -1.96096
-10.8672 -16.4521 -1.25426
-11.5372 -15.4808 -2.41782
-10.1492 -14.572 -1.78649
-11.3329 -16.3996 -1.23655
-10.8428 -15.8488 -1.87648
-11.8213 -16.1562 -1.70211
-12.783 -16.7319 -2.22868
-10.8906 -17.0658 -2.14223
-10.4009 -14.5451 -2.18476
-9.68506 -14.1049 -2.13881
-12.7905 -16.6062 -2.24282
-11.2578 -15.2943 -1.95599
-9.73355 -14.3733 -2.58217
-12.3716 -16.5162 -2.3984
-12.0076 -16.1164 -1.56334
-12.7778 -16.641 -2.23795
-11.3444 -15.5064 -1.60133
-12.4747 -17.2726 -2.50914
-12.5482 -16.5582 -1.69275
-9.35545 -14.6011 -1.85707
-12.5433 -16.453 -2.57581
-10.277 -14.4924 -2.35395
-12.2612 -16.8492 -1.3129
-12.4081 -16.549 -1.67587
-12.763 -16.601 -2.10212
-11.1761 -15.192 -2.43185
-10.7785 -16.3407 -1.78971
-11.2558 -15.3951 -1.77547
-11.5507 -16.2012 -1.2103
-10.4447 -14.811 -1.7553
-11.7606 -16.7456 -1.27224
-10.0945 -14.2783 -2.65092
-10.4917 -16.4797 -1.8679
-10.871 -14.9471 -2.14302
-12.1048 -15.9913 -2.04175
-12.4947 -16.4102 -1.84626
-11.7969 -15.7151 -2.29303
-9.97086 -16.3764 -2.08583
-11.803 -17.7816 -1.9146
-9.19688 -14.2709 -2.04181
-12.7316 -16.6974 -2.00718
-10.2871 -16.5889 -1.68182
-9.30209 -15.2427 -1.80643
-12.0086 -15.9022 -2.0411
-10.7553 -14.8477 -2.40063
-10.7413 -14.8717 -1.95002
-8.89671 -14.5511 -2.56804
-11.1531 -15.3938 -1.75069
-9.40717 -15.8047 -1.6582
-9.7701 -14.1562 -2.0899
-12.2868 -16.1255 -2.44607
-11.7733 -15.7308 -2.05224
-10.9598 -17.1658 -1.95348
-11.5688 -15.515 -2.5498
-10.7572 -14.7119 -1.69714
-9.2 -14.7 -1.89087
-10.067 -14.3056 -2.61784
-11.9491 -16.1393 -1.47925
-12.5025 -17.0076 -1.78204
-11.863 -16.011 -1.65611
-12.4157 -16.6034 -1.55484
-12.0886 -15.9254 -2.48513
-9.37189 -15.1775 -1.79658
-11.1659 -15.5917 -1.27695
-9.29912 -14.4127 -1.92405
-9.45976 -14.2102 -2.09643
-11.9232 -15.8423 -2.0447
-10.8471 -15.2684 -1.35152
-8.6909 -14.7112 -2.5821
-11.7953 -15.7201 -2.09341
-12.4139 -16.2433 -2.4436
-11.6104 -15.5775 -1.95882
-12.5925 -16.5655 -1.80449
-12.6149 -16.8639 -1.81026
-11.8881 -15.7911 -2.38488
-11.5902 -15.7407 -1.58388
-11.8092 -15.7169 -2.54282
-10.7854 -14.8631 -2.34027
-10.1034 -14.4508 -2.20079
-10.7569 -14.9413 -1.84
-12.6786 -16.7652 -1.94063
-11.4739 -15.9692 -1.21952
-10.2122 -14.5439 -2.20914
-12.6196 -16.959 -2.04064
-11.4797 -15.4413 -2.20432
-12.1186 -16.2091 -1.65281
-11.272 -15.6053 -1.35117
-9.97906 -14.4523 -1.76234
-11.5669 -16.5416 -1.74451
-11.835 -17.0556 -1.31466
-10.224 -14.4349 -2.49446
-12.7515 -16.6485 -2.04125
-12.6136 -16.4366 -2.19056
-10.7921 -14.7254 -1.6912
-10.8093 -14.7354 -1.73153
-11.0672 -15.1552 -1.89743
-11.4792 -15.4928 -1.8905
-12.7585 -16.6541 -2.08076
-10.3724 -14.8097 -1.50084
-9.65851 -16.1463 -1.93699
-10.6476 -14.7511 -2.39814
-10.0914 -14.2986 -2.63568
-10.3305 -14.7824 -2.40981
-9.53867 -14.2478 -1.9723
-12.2709 -16.2174 -2.41328
-9.84392 -16.1341 -1.42613
-8.63234 -14.8112 -2.27172
-11.9002 -17.7873 -2.44199
-11.6226 -16.0785 -1.1906
-12.2859 -16.5677 -1.34071
-12.3445 -16.7418 -1.32277
-11.4217 -15.399 -2.34174
-12.7407 -16.7158 -2.54751
-10.0902 -14.7008 -2.23932
-12.545 -16.3745 -2.06006
-11.3045 -15.4997 -1.64353
-11.3537 -15.3332 -2.33167
-10.9138 -17.1292 -2.06225
-10.8631 -14.9864 -1.87965
-12.0546 -16.4643 -1.24472
-10.6362 -14.709 -1.7385
-10.7527 -15.0914 -1.37835
-11.4035 -15.9119 -1.19483
-12.1375 -15.9772 -2.35337
-12.3866 -16.1806 -2.52203
-12.0525 -15.907 -2.24297
-10.1953 -14.442 -1.93647
-10.2719 -14.4441 -2.73738
-9.86012 -16.2451 -2.05135
-10.4816 -14.7284 -1.8345
-12.3594 -16.2614 -1.89589
-12.6982 -16.8183 -2.11684
-10.8247 -17.0627 -1.91019
-11.3609 -16.4587 -1.25163
-10.2023 -14.5975 -1.68719
-11.626 -15.5681 -2.3997
-9.75784 -14.0955 -2.54782
-11.2897 -15.2615 -2.48979
-11.4447 -15.8234 -1.24872
-10.0734 -14.299 -2.63604
-10.9948 -15.9894 -1.21949
-10.6496 -14.8009 -1.8576
-12.1423 -16.0745 -1.8597
-11.9134 -16.8044 -1.279
-12.3085 -16.2217 -1.85277
-11.6088 -15.5524 -2.24407
-10.0655 -16.4792 -1.92158
-10.5624 -14.7018 -2.59572
-9.39822 -14.0176 -2.43919
-12.4098 -17.3063 -2.64936
-10.2906 -14.4569 -2.69254
-9.16713 -15.6599 -1.84814
-11.9076 -15.8285 -2.20827
-9.38171 -14.5036 -1.85336
-11.3349 -15.318 -2.28911
-11.2679 -15.2571 -2.44547
-11.2507 -15.3126 -1.8517
-12.1869 -16.3384 -2.23284
-9.48561 -14.4421 -1.85023
-9.99423 -14.284 -2.03602
-10.2294 -14.8624 -1.55453
-10.4221 -14.9489 -1.42996
-9.91025 -14.3475 -2.30557
-9.17027 -14.368 -2.00291
-10.2557 -16.4385 -1.31042
-9.90465 -14.2 -2.14595
-12.5832 -17.0938 -2.42796
-10.0968 -14.7696 -2.26735
-11.2203 -15.4145 -1.60533
-12.5264 -16.5987 -1.63268
-10.2878 -14.4757 -2.40014
-10.9414 -15.4089 -1.32545
-12.6456 -16.4593 -2.09109
-10.3414 -14.7714 -2.3881
-12.0288 -16.1321 -1.63526
-10.737 -14.8055 -2.23392
-10.092 -14.3596 -2.20108
-11.8223 -16.1754 -1.3106
-9.85866 -14.3593 -1.79208
-12.4632 -17.1632 -1.9141
-10.6098 -16.3997 -1.27554
-9.65794 -16.0965 -1.7868
-11.9895 -15.8433 -2.44184
-11.6211 -16.6575 -1.2607
-9.58969 -14.7204 -1.78228
-12.0502 -16.0132 -1.79722
-11.0923 -15.5112 -1.24783
-10.1327 -14.3115 -2.07852
-9.45793 -15.0702 -1.80398
-11.321 -16.6384 -1.25668
-10.8739 -15.1851 -2.7025
-12.3758 -16.1857 -2.58577
-12.5093 -17.1586 -2.43539
-12.1578 -16.5433 -1.28381
-9.6084 -14.9044 -1.76748
-12.2982 -16.1576 -1.994
-9.49019 -15.1342 -1.76799
-9.34038 -14.268 -1.9617
-10.6609 -16.3618 -1.6461
-12.6776 -16.4863 -2.27726
-12.5522 -17.0924 -2.40087
-11.4628 -15.6186 -1.6553
-9.49892 -14.2982 -1.93529
-11.3724 -15.3556 -2.49885
-10.1456 -14.3598 -2.44034
-11.7964 -15.7136 -2.58212
-9.61423 -14.0256 -2.50082
-11.3216 -15.3413 -1.99954
-11.0021 -15.1172 -1.84847
-11.3339 -15.3085 -2.38115
-11.6186 -16.7134 -1.26989
-11.7956 -16.7859 -1.2766
-10.7334 -15.1875 -1.37461
-11.802 -16.8614 -1.30803
-11.2743 -15.4475 -1.70594
-11.9446 -16.3353 -1.27651
-11.322 -15.4913 -1.72849
-9.2115 -14.6706 -1.88428
-9.7023 -14.3419 -1.88776
-10.2961 -14.6984 -1.59043
-10.3975 -14.6016 -2.35829
-12.3734 -17.2836 -2.44255
-10.1137 -16.3003 -1.34959
-12.6905 -16.8068 -2.01135
-12.6389 -16.6627 -1.75634
-10.4046 -14.6071 -1.94783
-11.0978 -15.2047 -1.84511
-12.0622 -16.1359 -1.72986
-12.7178 -16.5505 -2.39769
-9.02684 -14.2574 -2.36969
-12.0197 -16.4378 -1.2267
-12.334 -16.1773 -2.13191
-10.3701 -14.6065 -1.8927
-10.5119 -14.7056 -1.9429
-10.5143 -15.0168 -1.79543
-9.069 -14.2665 -2.48234
-10.6645 -14.7446 -1.66047
-10.8114 -14.7359 -1.77312
-11.3943 -15.3627 -2.44065
-11.5485 -15.4857 -2.17577
-12.3493 -17.3032 -1.92318
-11.9877 -16.5215 -1.25782
-12.3291 -16.3135 -1.71591
-9.92989 -14.6653 -2.27831
-9.34151 -14.0367 -2.19537
-9.63669 -16.078 -1.83669
-11.9648 -15.9412 -1.84164
-10.1204 -14.3893 -1.97104
-10.4907 -14.7371 -2.65446
-10.4178 -14.7045 -2.59692
-12.5145 -16.3398 -2.14037
-12.019 -15.9218 -1.86935
-11.4117 -15.3711 -2.36109
-12.2698 -17.3517 -2.4105
-10.798 -14.8795 -2.15861
-10.151 -14.2997 -2.79564
-10.595 -15.0511 -1.42863
-10.6824 -14.9659 -1.55506
-12.4573 -17.3003 -2.49475
-9.69005 -14.2961 -1.94067
-11.6649 -15.6083 -2.10374
-11.047 -16.3643 -1.25583
-12.5671 -16.3631 -2.34423
-11.4316 -15.6004 -1.72956
-12.4508 -17.2139 -2.13639
-12.6686 -16.9536 -2.3944
-12.7631 -16.6037 -2.29712
-12.433 -16.8812 -1.51015
-12.5468 -16.4987 -1.79687
-10.8105 -14.9853 -1.82602
-12.0798 -16.4238 -1.26569
-11.6183 -15.5578 -2.45026
-10.9454 -16.4729 -1.27715
-9.70717 -14.0978 -2.29951
-11.712 -15.6455 -2.49332
-12.2098 -16.0153 -2.70245
-12.728 -16.601 -2.08099
-10.4374 -14.5647 -2.41123
-11.8641 -15.7874 -2.09066
-9.17914 -15.258 -1.82594
-12.1428 -17.5573 -2.44927
-9.63307 -15.0633 -1.76504
-11.4044 -15.8546 -1.23958
-10.3201 -16.6064 -1.85842
-12.2173 -16.1609 -2.24408
-11.1328 -15.1099 -2.4274
-10.2651 -14.6647 -1.64867
-11.0215 -15.0956 -1.99727
-11.5724 -15.5462 -2.26838
-11.1785 -15.1412 -2.35773
-9.82268 -14.2957 -2.46345
-11.6561 -15.6548 -1.84229
-9.51476 -14.7681 -1.79704
-10.3061 -16.4461 -1.28959
-11.3411 -15.7184 -1.25869
-11.1744 -15.1916 -2.48595
-11.6068 -15.5466 -2.49325
-10.7902 -15.709 -1.24557
-10.8757 -15.1872 -1.62941
-12.5394 -16.3564 -2.50476
-12.4182 -17.2788 -2.66997
-10.1456 -14.33 -2.51211
-12.3261 -16.4834 -2.35129
-10.1476 -16.3051 -1.33634
-12.4748 -16.2856 -2.09956
-12.3794 -17.301 -2.00284
-11.3105 -15.6102 -1.53635
-8.99654 -14.332 -2.24493
-9.63184 -14.3809 -1.91373
-9.88625 -14.294 -2.38588
-11.6758 -15.7989 -1.67539
-11.5643 -16.1017 -1.21786
-12.6277 -16.826 -1.8072
-12.4304 -16.2257 -2.38981
-10.683 -14.7787 -2.23603
-12.0427 -15.8881 -2.33049
-9.83603 -16.2529 -1.93942
-11.1499 -15.7018 -1.23011
-11.3781 -15.4846 -1.7588
-10.0084 -14.2998 -1.99111
-11.5452 -15.5207 -1.95134
-12.538 -16.4105 -2.39166
-9.84895 -14.2014 -2.60041
-9.30937 -14.2056 -2.04823
-11.8607 -16.1043 -1.64257
-11.8865 -17.0483 -1.30318
-12.5451 -16.3123 -2.54458
-10.1735 -14.3979 -2.59772
-9.6515 -16.1075 -1.98654
-12.4008 -16.2237 -2.26197
-12.5751 -16.9536 -2.25436
-8.71207 -14.7292 -2.52457
-11.2862 -15.2112 -2.19666
-9.15184 -14.1621 -2.23898
-11.4537 -15.4279 -1.96564
-12.0263 -16.9704 -1.33263
-12.4171 -16.2334 -2.6951
-10.1565 -14.4461 -1.88757
-11.3619 -15.3843 -1.92649
-10.2256 -16.4194 -2.14442
-12.7688 -16.7074 -2.19147
-12.2954 -16.3662 -2.25778
-10.4898 -14.9445 -1.44701
-12.311 -16.4178 -2.24244
-9.8524 -14.4081 -1.76834
-10.965 -15.153 -1.77209
-11.4538 -16.3796 -1.24571
-9.95532 -14.2602 -2.34715
-8.91104 -14.4395 -2.57817
-8.68356 -14.7629 -2.57653
-8.67407 -14.8092 -2.57843
-8.74774 -14.6537 -2.47425
-9.05888 -14.2444 -2.29862
-9.06897 -14.2144 -2.28608
-8.8327 -14.4825 -2.35125
-8.84346 -14.4674 -2.32561
-9.07971 -14.2234 -2.25751
-8.86188 -14.4431 -2.30106
-8.87691 -14.4227 -2.27539
-9.27031 -14.094 -2.21691
-9.29745 -14.0258 -2.17389
-9.28458 -14.1013 -2.18073
-9.10056 -14.2554 -2.19751
-9.30954 -14.1085 -2.1389
-9.11748 -14.2566 -2.15836
-8.90584 -14.4496 -2.198
-8.94211 -14.4147 -2.14199
-9.31699 -14.1209 -2.11196
-9.13306 -14.2502 -2.12519
-9.30327 -14.1581 -2.10593
-8.94914 -14.4293 -2.11165
-8.62433 -14.9219 -2.24054
-8.94962 -14.4523 -2.0964
-9.32886 -14.1548 -2.06354
-9.31044 -14.1996 -2.09534
-8.96492 -14.4614 -2.06489
-9.33276 -14.1729 -2.04758
-9.16193 -14.3053 -2.04176
-9.34801 -14.1964 -2.04718
-8.97215 -14.551 -2.01593
-8.97186 -14.5992 -1.99881
-9.18938 -14.3965 -1.96713
-8.95847 -14.6743 -1.99987
-9.17024 -14.4768 -1.96826
-8.95688 -14.7256 -1.98489
-8.96306 -14.7329 -1.96925
-9.19969 -14.4499 -1.91364
-8.94731 -14.8048 -1.97665
-11.4768 -15.4408 -2.31084
-9.07425 -15.5347 -1.86096
-10.3322 -16.602 -1.83755
-9.30431 -15.7271 -1.73965
-9.3163 -15.7485 -1.74107
-9.41164 -14.2608 -2.09892
-9.3559 -14.1754 -2.11645
-12.1048 -16.0063 -1.94871
-9.47647 -14.0234 -2.50111
-10.7948 -14.8705 -2.53744
-9.82181 -14.1419 -2.29706
-11.3051 -15.2684 -2.10181
-12.4126 -16.459 -1.70071
-9.50821 -14.362 -1.86723
-10.8396 -15.8074 -1.90192
-10.6091 -14.9237 -1.64292
-12.168 -16.1071 -2.15932
-12.3793 -17.1787 -1.77841
-10.0882 -14.2643 -2.25137
-12.1561 -16.7605 -1.29631
-10.7392 -15.0855 -1.47784
-9.35045 -14.0031 -2.54019
-9.50172 -13.9954 -2.53341
-9.36888 -14.0134 -2.49448
-9.17548 -14.1002 -2.53642
-9.61143 -14.0452 -2.54474
-9.50044 -14.0118 -2.49415
-9.63536 -14.0385 -2.53722
-9.16624 -14.1717 -2.51183
-9.64308 -14.0515 -2.49815
-9.50482 -14.0482 -2.44634
-9.2178 -14.1205 -2.42458
-8.90324 -14.4652 -2.55351
-9.65726 -14.0511 -2.44384
-9.40128 -14.049 -2.38998
-9.21927 -14.1313 -2.41458
-9.53114 -14.0561 -2.4258
-9.79459 -14.1085 -2.49362
-9.52356 -14.0886 -2.42665
-9.26738 -14.0702 -2.34229
-8.97322 -14.3686 -2.46172
-9.66966 -14.0553 -2.40493
-9.43663 -14.0102 -2.32893
-9.79678 -14.1137 -2.44683
-9.69624 -14.0274 -2.3872
-9.07153 -14.2098 -2.3481
-9.44572 -14.0131 -2.29191
-9.08173 -14.2047 -2.32905
-9.70209 -14.0613 -2.38991
-9.1068 -14.1695 -2.29691
-9.70279 -14.0667 -2.34936
-9.46318 -14.0218 -2.2508
-9.12262 -14.1696 -2.26228
-9.10696 -14.2473 -2.24702
-9.48917 -14.0376 -2.19179
-9.36356 -14.0281 -2.15146
-9.6176 -14.059 -2.19877
-9.16415 -14.1789 -2.1668
-8.86963 -14.4775 -2.25896
-9.85426 -14.149 -2.30113
-9.71646 -14.1096 -2.24799
-9.49962 -14.0554 -2.14022
-9.65031 -14.0679 -2.194
-9.85895 -14.1566 -2.24789
-9.74974 -14.1252 -2.20006
-9.52158 -14.0896 -2.09063
-9.75865 -14.1403 -2.19952
-8.94168 -14.4543 -2.12542
-9.65724 -14.1092 -2.0961
-9.75916 -14.1399 -2.1488
-9.90959 -14.1946 -2.19584
-9.80231 -14.1574 -2.1433
-9.45757 -14.2609 -2.09296
-9.65793 -14.1221 -2.06083
-9.19203 -14.3547 -2.00255
-9.49571 -14.2907 -2.04385
-9.35059 -14.3122 -2.01902
-9.90877 -14.2077 -2.09845
-9.69467 -14.1667 -2.0075
-9.39505 -14.2628 -1.95203
-9.19466 -14.3911 -1.97585
-10.0406 -14.2637 -2.13799
-10.0537 -14.2681 -2.10308
-9.94812 -14.2198 -2.04891
-9.64168 -14.3298 -2.03181
-9.38976 -14.2976 -1.95148
-9.65056 -14.3242 -2.01477
-9.54193 -14.2733 -1.95278
-9.38322 -14.3391 -1.93601
-9.1851 -14.4971 -1.93464
-9.95375 -14.2485 -2.04631
-9.65919 -14.3392 -1.98901
-9.53812 -14.3103 -1.94271
-9.38046 -14.3641 -1.92847
-9.84532 -14.2075 -1.99755
-9.7097 -14.261 -1.94553
-9.38509 -14.3713 -1.91507
-9.83888 -14.2233 -1.96184
-9.38441 -14.3992 -1.90181
-9.17334 -14.5577 -1.92403
-10.071 -14.2993 -2.04548
-9.95782 -14.2573 -1.99455
-9.57777 -14.2661 -1.87989
-9.16187 -14.602 -1.92221
-9.71185 -14.2578 -1.90722
-9.14966 -14.6449 -1.92271
-9.56677 -14.3465 -1.86473
-9.39877 -14.4479 -1.89558
-9.36435 -14.5632 -1.85822
-10.0033 -14.3151 -1.94333
-9.85637 -14.2924 -1.88419
-9.74164 -14.2947 -1.83051
-9.09108 -14.8853 -1.90628
-10.0005 -14.315 -1.90103
-9.5547 -14.463 -1.84721
-9.34267 -14.6696 -1.84829
-9.07854 -14.933 -1.90493
-9.86308 -14.3134 -1.84428
-9.73814 -14.3329 -1.82181
-9.54587 -14.5002 -1.8363
-9.05753 -15 -1.90979
-10.1134 -14.3494 -2.2994
-10.0039 -14.341 -1.88993
-9.31229 -14.8009 -1.84353
-10.1131 -14.4058 -1.90037
-10.0053 -14.362 -1.84881
-9.90205 -14.3593 -1.79848
-9.5287 -14.6206 -1.81641
-9.51979 -14.6626 -1.8156
-8.983 -15.2687 -1.91071
-9.31563 -14.8941 -1.8311
-9.72954 -14.4908 -1.77473
-9.26656 -14.9903 -1.84104
-10.0076 -14.4131 -1.7974
-9.89857 -14.3988 -1.78542
-9.48863 -14.8565 -1.79189
-10.1524 -14.4663 -1.84723
-10.0421 -14.4514 -1.78781
-10.1596 -14.456 -1.80899
-9.61008 -14.9547 -1.78695
-9.36171 -15.2777 -1.83159
-9.63258 -15.0007 -1.7713
-9.65685 -15.001 -1.74967
-9.3116 -15.693 -1.78251
-10.2242 -14.578 -1.64213
-10.2119 -14.6409 -1.62975
-10.2202 -14.6849 -1.62609
-9.5692 -16.0109 -1.88312
-10.2221 -14.6744 -1.60379
-9.34384 -15.7822 -1.68456
-10.2293 -14.7006 -1.60402
-9.58319 -16.0226 -1.86376
-9.61531 -16.054 -1.78553
-9.62688 -16.0636 -1.7549
-9.64992 -16.076 -1.71777
-9.54655 -15.9394 -1.59854
-9.57266 -15.9144 -1.55839
-9.56963 -15.9844 -1.54047
-11.1419 -15.1302 -2.55241
-9.77371 -16.0864 -1.47802
-9.79913 -16.0635 -1.45063
-10.209 -16.3206 -1.33743
-11.332 -15.5304 -2.71083
-12.6179 -16.9564 -1.94893
-11.1785 -15.212 -2.35716
-11.8391 -15.7717 -1.98962
-9.86256 -14.401 -2.33539
-12.1598 -16.0334 -2.17381
-11.2952 -15.6349 -1.37772
-12.3095 -17.0102 -1.48429
-12.2135 -16.2085 -1.75238
-11.1353 -15.2165 -1.85497
-12.4304 -16.2906 -2.01213
-9.34615 -14.3097 -1.95048
-10.3445 -14.6133 -1.80518
-11.4608 -16.9647 -1.28966
-10.2112 -14.528 -2.22259
-11.5696 -15.5127 -2.24297
-9.46466 -14.0125 -2.53648
-9.31145 -14.0497 -2.49362
-9.7197 -14.1071 -2.54665
-9.61351 -14.0529 -2.49115
-9.34242 -14.0465 -2.44251
-10.2569 -14.3544 -2.79638
-9.8293 -14.1575 -2.59947
-9.35623 -14.0306 -2.42792
-9.37399 -14.0269 -2.39192
-9.03397 -14.2892 -2.53164
-10.1667 -14.3601 -2.70042
-9.40974 -14.0219 -2.34562
-9.10693 -14.2274 -2.44141
-9.76405 -14.118 -2.45218
-9.39542 -14.0363 -2.34335
-9.50563 -14.0513 -2.36688
-9.4174 -14.0162 -2.3155
-9.20604 -14.1154 -2.34331
-11.8851 -15.7732 -2.50754
-10.0023 -14.18 -2.51079
-9.6752 -14.0639 -2.35987
-9.55086 -14.0515 -2.35519
-9.24263 -14.0838 -2.29883
-10.1522 -14.4078 -2.6967
-9.56746 -14.0278 -2.30522
-10.2899 -14.424 -2.70566
-10.1387 -14.443 -2.69239
-9.74297 -14.4026 -2.58405
-10.1691 -14.4072 -2.65648
-10.0952 -14.3044 -2.53997
-9.74019 -14.4649 -2.58586
-10.1929 -14.374 -2.6164
-10.0111 -14.2136 -2.446
-8.94386 -14.3362 -2.33944
-8.9678 -14.3176 -2.31075
-10.2939 -14.464 -2.64915
-11.7003 -17.2213 -1.33961
-9.77394 -14.4309 -2.53152
-10.1096 -14.3234 -2.50499
-9.8513 -14.3113 -2.43621
-9.01756 -14.2759 -2.25401
-10.0364 -14.2256 -2.39771
-10.3033 -14.4937 -2.64451
-9.88011 -14.2738 -2.40764
-9.44872 -14.0638 -2.15517
-9.90349 -14.2671 -2.38371
-10.1194 -14.3438 -2.44988
-10.0409 -14.2642 -2.38884
-9.89438 -14.3086 -2.34681
-9.62471 -14.07 -2.1541
-10.2108 -14.424 -2.50872
-10.0469 -14.2553 -2.35169
-9.72499 -14.1216 -2.2096
-10.3225 -14.5016 -2.55353
-9.06412 -14.3054 -2.14286
-9.62828 -14.0897 -2.13173
-10.2475 -14.4512 -2.49186
-9.85481 -14.1594 -2.19617
-10.257 -14.454 -2.44601
-9.90147 -14.3301 -2.30965
-9.51167 -14.0909 -2.06768
-9.06044 -14.3514 -2.11079
-10.1645 -14.4 -2.39759
-9.86986 -14.1757 -2.15888
-9.40453 -14.2672 -2.12874
-10.2639 -14.4619 -2.39268
-9.8353 -14.4976 -2.34615
-9.10408 -14.3241 -2.05396
-10.3678 -14.523 -2.44501
-9.87979 -14.1894 -2.13732
-10.4375 -14.677 -2.55751
-10.1707 -14.3791 -2.31673
-10.0952 -14.3057 -2.24305
-9.97401 -14.2559 -2.20589
-9.45193 -14.2642 -2.04511
-10.5521 -14.6707 -2.5831
-9.99168 -14.2478 -2.18233
-9.3261 -14.2456 -2.00024
-9.08481 -14.3858 -2.03765
-10.4439 -14.6846 -2.53688
-10.2716 -14.4721 -2.35825
-10.0996 -14.3146 -2.21186
-9.77747 -14.177 -2.05967
-10.373 -14.5438 -2.39985
-9.35219 -14.2298 -1.97014
-10.5866 -14.6924 -2.536
-10.2828 -14.4719 -2.33289
-9.10411 -14.3989 -1.99194
-10.0201 -14.2591 -2.09351
-9.60149 -14.2995 -2.02821
-9.07773 -14.4509 -1.9967
-10.2985 -14.4731 -2.29417
-9.91219 -14.2376 -2.03581
-9.50899 -14.2653 -1.95586
-10.3501 -14.6836 -2.4092
-10.3138 -14.4665 -2.26073
-9.59573 -14.3594 -1.99379
-9.99994 -14.2714 -2.04212
-9.31654 -14.3583 -1.94824
-10.3099 -14.4985 -2.25571
-9.96562 -14.6851 -2.27241
-10.0345 -14.2795 -2.04932
-9.80864 -14.2292 -1.95941
-10.5133 -14.6511 -2.39119
-9.81258 -14.2494 -1.93758
-9.61742 -14.3549 -1.95653
-9.53004 -14.2719 -1.89328
-10.5143 -14.6105 -2.33991
-9.51816 -14.3146 -1.88495
-10.5343 -14.6264 -2.32915
-10.359 -14.7433 -2.3583
-10.05 -14.3211 -2.00674
-9.9351 -14.2711 -1.96582
-9.66464 -14.3107 -1.90065
-9.26082 -14.5141 -1.9153
-10.6258 -14.7327 -2.39535
-10.0909 -14.7673 -2.28194
-9.81892 -14.2719 -1.90932
-10.5449 -14.6525 -2.29628
-10.4413 -14.5711 -2.23836
-10.2322 -14.7804 -2.29273
-10.0656 -14.3386 -1.98805
-9.82591 -14.2878 -1.88461
-9.6651 -14.3454 -1.89533
-9.49498 -14.4055 -1.85977
-10.4567 -14.601 -2.2459
-10.3209 -14.5826 -2.18432
-10.2668 -14.4434 -2.08352
-10.1538 -14.3698 -2.00739
-10.0607 -14.3556 -1.94672
-9.69109 -14.313 -1.84936
-9.24428 -14.5979 -1.88052
-10.4586 -14.5964 -2.195
-10.3596 -14.5168 -2.13019
-10.2612 -14.4479 -2.0416
-10.5497 -14.663 -2.24426
-9.66798 -14.3598 -1.84519
-9.82686 -14.3423 -1.84595
-9.69377 -14.3516 -1.84346
-9.95795 -14.3398 -1.87471
-9.65672 -14.404 -1.84005
-9.4503 -14.5529 -1.84352
-10.4649 -14.6184 -2.14809
-9.17938 -14.7655 -1.86981
-9.44128 -14.5879 -1.82589
-10.3512 -14.5422 -2.03765
-10.2912 -14.495 -1.99459
-9.41014 -14.6115 -1.84518
-10.4767 -14.6343 -2.12513
-10.3875 -14.5617 -2.04131
-9.40758 -14.6731 -1.82645
-10.5001 -14.6562 -2.09652
-9.97446 -14.4021 -1.80243
-10.5979 -14.712 -2.14731
-9.63187 -14.552 -1.78979
-10.414 -14.5994 -2.04235
-10.1102 -14.4471 -1.84196
-9.83604 -14.4464 -1.76853
-9.61974 -14.5965 -1.7821
-9.37903 -14.7671 -1.81114
-9.82635 -14.4661 -1.76539
-10.309 -14.5328 -1.93078
-10.1095 -14.4646 -1.80156
-9.81224 -14.5166 -1.7559
-10.6077 -14.7214 -2.10239
-10.3088 -14.5513 -1.89773
-10.2093 -14.503 -1.84505
-9.31999 -14.9137 -1.81421
-10.6125 -14.7489 -2.08936
-9.5564 -14.7642 -1.78692
-9.29422 -14.9751 -1.81739
-9.27382 -15.0258 -1.81852
-9.2394 -15.1019 -1.82713
-10.7072 -14.8743 -2.15755
-10.6165 -14.7458 -2.04501
-10.1952 -14.5184 -1.80159
-10.1179 -14.507 -1.74724
-9.2361 -15.1255 -1.81625
-10.7056 -14.8098 -2.1437
-10.3182 -14.5903 -1.848
-10.2248 -14.5516 -1.80087
-9.93474 -14.612 -1.75306
-9.72946 -14.7587 -1.76358
-9.21411 -15.1798 -1.81776
-10.644 -14.7566 -2.04212
-10.4107 -14.636 -1.88879
-9.69176 -14.8521 -1.78278
-9.68158 -14.8833 -1.77583
-10.6509 -14.7696 -1.99471
-10.3438 -14.6043 -1.84455
-9.69307 -14.8932 -1.7477
-9.12798 -15.3937 -1.84143
-10.757 -14.8564 -2.04563
-12.3601 -16.6016 -1.43727
-10.2239 -14.594 -1.76886
-10.1277 -14.5411 -1.70181
-9.66943 -14.9407 -1.76257
-10.6546 -14.7927 -1.9964
-10.4405 -14.67 -1.86797
-10.5523 -14.7271 -1.91404
-10.4559 -14.6989 -1.84344
-10.1467 -14.559 -1.69255
-9.70352 -14.94 -1.74749
-11.2122 -15.8858 -1.2414
-10.554 -14.7467 -1.89749
-10.343 -14.6448 -1.79284
-10.7561 -14.8585 -2.00206
-10.145 -14.5703 -1.66306
-9.30331 -15.4299 -1.81098
-10.137 -14.5923 -1.65543
-9.33968 -15.3802 -1.7769
-10.3486 -14.7156 -1.74749
-10.1204 -14.6458 -1.65897
-10.7053 -14.8523 -1.89556
-10.6075 -14.724 -1.78881
-10.6981 -14.8129 -1.84196
-9.22971 -15.7007 -1.76801
-10.6217 -14.721 -1.75903
-10.2846 -14.6608 -1.61361
-9.23341 -15.7144 -1.75229
-10.3661 -14.7511 -1.67968
-10.7256 -14.7993 -1.81534
-10.7502 -14.7425 -1.77972
-10.7591 -14.7312 -1.76409
-10.6499 -14.7248 -1.70396
-10.7683 -14.7166 -1.74362
-10.8374 -14.9563 -1.8463
-10.7964 -14.7442 -1.69347
-10.8523 -14.9264 -1.80903
-10.3119 -14.7472 -1.55223
-10.8547 -15.0136 -1.80395
-10.65 -14.8028 -1.65647
-10.3053 -14.7775 -1.5162
-9.87999 -16.2507 -2.00908
-9.4377 -15.8543 -1.63535
-10.7967 -14.7623 -1.66289
-10.0018 -16.3341 -2.09102
-9.89749 -16.2594 -1.9879
-9.64807 -16.0754 -1.8163
-10.0038 -16.3673 -2.06526
-9.99448 -16.4466 -2.07635
-9.91385 -16.2657 -1.95543
-9.45493 -15.8589 -1.60153
-10.6458 -14.9175 -1.61028
-9.67235 -16.1189 -1.74824
-9.69116 -16.111 -1.71689
-10.4452 -14.874 -1.4546
-9.6864 -16.1448 -1.70879
-10.0549 -16.4829 -1.94117
-9.72591 -16.1658 -1.62509
-9.64059 -16.0047 -1.52164
-10.703 -15.0118 -1.49928
-9.76215 -16.1465 -1.56812
-9.78008 -16.1263 -1.54523
-10.6017 -15.0213 -1.39444
-10.6115 -15.0585 -1.39213
-10.7322 -15.0656 -1.42556
-9.84259 -16.1007 -1.44437
-10.7194 -15.1096 -1.44322
-10.7278 -15.1278 -1.41506
-10.7249 -15.1439 -1.41026
-10.6353 -15.0611 -1.331
-9.84904 -16.1461 -1.41124
-10.6093 -15.2374 -1.31962
-10.761 -15.175 -1.34323
-10.5952 -15.3077 -1.32217
-10.7508 -15.201 -1.33362
-10.761 -15.2157 -1.30484
-10.0426 -16.2431 -1.355
-10.787 -15.2224 -1.27594
-10.7874 -15.2628 -1.26366
-12.1723 -16.2018 -1.74266
-10.776 -15.342 -1.26242
-10.2361 -16.2844 -1.32372
-10.2234 -16.3539 -1.32076
-10.9291 -15.3495 -1.26021
-10.5264 -15.8796 -1.26057
-10.7601 -15.602 -1.23824
-10.954 -15.4171 -1.25
-10.4641 -16.1836 -1.27547
-10.3966 -16.4518 -1.31092
-10.9589 -15.4538 -1.23633
-10.7172 -15.8538 -1.23607
-10.7053 -15.9895 -1.25063
-11.0666 -15.5146 -1.25005
-10.6726 -16.0891 -1.24606
-10.6467 -16.2213 -1.25714
-11.0838 -15.5525 -1.2069
-11.0942 -15.6037 -1.19553
-10.83 -16.2122 -1.2481
-10.5916 -16.6404 -1.26285
-10.8153 -16.3148 -1.25219
-9.45697 -14.1749 -2.11958
-9.39758 -15.0637 -1.81971
-12.3096 -16.0985 -2.74291
-12.6181 -16.7509 -1.73184
-12.6495 -16.4449 -2.44114
-11.3462 -15.5582 -1.55162
-12.0422 -17.6096 -1.87783
-9.93636 -14.2084 -2.17663
-12.6999 -16.8852 -2.52705
-10.409 -14.5609 -2.14861
-11.5255 -15.4857 -2.35977
-12.4225 -16.2518 -2.34922
-11.8339 -15.6988 -2.52252
-9.39214 -15.8604 -1.64282
-12.5082 -16.4828 -1.77848
-10.209 -16.4486 -2.11219
-12.414 -16.2454 -2.09389
-10.2871 -16.5693 -1.8358
-9.47632 -14.1833 -2.6599
-9.63734 -14.0284 -2.51606
-10.0693 -14.2533 -2.6916
-9.71808 -14.2967 -2.7127
-10.008 -14.2044 -2.55312
-9.89224 -14.152 -2.5181
-10.1503 -14.3531 -2.65162
-9.68225 -14.436 -2.65292
-10.3072 -14.5596 -2.80086
-9.71642 -14.3899 -2.60923
-9.6803 -14.118 -2.35209
-9.74783 -14.4157 -2.5434
-9.51082 -14.019 -2.19993
-9.63818 -14.0536 -2.2445
-10.323 -14.6488 -2.75834
-10.3704 -14.6032 -2.69643
-10.3938 -14.5512 -2.67863
-10.3976 -14.5648 -2.64356
-10.0649 -14.2975 -2.39333
-9.55045 -14.0583 -2.10024
-10.0556 -14.2918 -2.34079
-9.8913 -14.3515 -2.32457
-10.4114 -14.6355 -2.58804
-10.3265 -14.5323 -2.5058
-10.4193 -14.6182 -2.55888
-9.79503 -14.5167 -2.35271
-10.5226 -14.6811 -2.60525
-10.1672 -14.3921 -2.33878
-10.3603 -14.5401 -2.45066
-9.70415 -14.1258 -2.0624
-9.69864 -14.1536 -2.04581
-10.3293 -14.8157 -2.6115
-9.80281 -14.5017 -2.29668
-10.3796 -14.7563 -2.54187
-9.67369 -14.2099 -1.99926
-10.4147 -14.7095 -2.49718
-9.70897 -14.1961 -1.9931
-9.46269 -14.2756 -2.01812
-10.4541 -14.6543 -2.4491
-10.4769 -14.6342 -2.41258
-10.3758 -14.5763 -2.36247
-10.3116 -14.509 -2.29965
-9.64717 -14.2606 -1.99896
-10.0609 -14.461 -2.19595
-10.7527 -14.8825 -2.61225
-10.6497 -14.7618 -2.49964
-10.3557 -14.6544 -2.39042
-10.2274 -14.8583 -2.46715
-10.7628 -14.8611 -2.55091
-10.5122 -14.6526 -2.34427
-10.2474 -14.8446 -2.4344
-10.2909 -14.5722 -2.25673
-9.93663 -14.6554 -2.26624
-10.1331 -14.401 -2.10631
-10.2751 -14.8188 -2.39435
-10.2048 -14.7104 -2.30795
-10.153 -14.8124 -2.33517
-10.6172 -14.7351 -2.34414
-10.5186 -14.6707 -2.29229
-10.6059 -14.7183 -2.34764
-10.3246 -14.5593 -2.17835
-10.1907 -14.3969 -1.9994
-9.48186 -14.3988 -1.87101
-10.6303 -14.7415 -2.30977
-10.7249 -14.8225 -2.35843
-10.8266 -14.904 -2.40526
-10.6612 -14.7622 -2.24954
-10.9264 -14.9881 -2.45477
-10.7457 -14.8261 -2.31207
-9.8873 -14.322 -1.8028
-11.1051 -15.1581 -2.595
-11.0233 -15.0677 -2.50511
-10.4782 -14.6457 -2.09212
-11.0356 -15.0672 -2.48636
-10.9551 -15.0109 -2.39693
-10.771 -14.8547 -2.252
-10.6762 -14.7857 -2.18909
-11.2474 -15.286 -2.60869
-11.1528 -15.1666 -2.49749
-11.2612 -15.2236 -2.55034
-11.0621 -15.098 -2.44006
-10.68 -14.7936 -2.16346
-10.0005 -14.4339 -1.77438
-9.99706 -14.4583 -1.75793
-10.8755 -14.94 -2.2665
-11.2635 -15.2181 -2.51982
-10.8977 -14.9549 -2.24828
-10.4127 -14.6318 -1.94551
-10.9863 -15.0187 -2.29192
-11.0771 -15.1104 -2.34758
-11.0957 -15.117 -2.34552
-11.1958 -15.2108 -2.39836
-10.6027 -14.7571 -1.98933
-11.0067 -15.0533 -2.25072
-10.2266 -14.5851 -1.78183
-10.1564 -14.5257 -1.74689
-9.87155 -14.7131 -1.76394
-10.7247 -14.838 -2.03744
-12.139 -15.9707 -2.37587
-9.65028 -14.8352 -1.7568
-11.2051 -15.2135 -2.34554
-10.2529 -14.5769 -1.73981
-11.2868 -15.351 -2.44835
-10.9221 -14.9863 -2.14904
-9.26442 -15.1678 -1.80944
-10.8055 -14.9015 -2.05021
-10.2642 -14.578 -1.71835
-11.118 -15.1444 -2.24679
-10.8428 -14.9256 -2.06023
-10.256 -14.6109 -1.70801
-9.46013 -15.1465 -1.80772
-9.16588 -15.3418 -1.83977
-10.9191 -14.9928 -2.09376
-10.9989 -15.0583 -2.14561
-10.9436 -15.0096 -2.09076
-10.6543 -14.8073 -1.89225
-10.2252 -14.6785 -1.71212
-11.1371 -15.1281 -2.20982
-10.2408 -14.6731 -1.68796
-11.2356 -15.2142 -2.27277
-10.3705 -14.6746 -1.71838
-10.9569 -15.0217 -2.04923
-10.6714 -14.8372 -1.89543
-10.5671 -14.7657 -1.79765
-10.7556 -14.9027 -1.89603
-10.6698 -14.8421 -1.85587
-9.38756 -15.3322 -1.76994
-11.1497 -15.1739 -2.15204
-10.2835 -14.6516 -1.62708
-9.293 -15.4782 -1.80277
-10.9667 -15.0369 -2.02692
-11.2577 -15.2221 -2.19411
-10.9736 -15.0471 -1.99553
-9.20909 -15.6255 -1.81676
-10.3695 -14.764 -1.6552
-10.8992 -15.0044 -1.89095
-10.3733 -14.7859 -1.63235
-11.265 -15.2666 -2.14923
-10.9913 -15.0689 -1.94483
-11.2865 -15.256 -2.14951
-11.1883 -15.2133 -2.04447
-10.797 -14.9648 -1.80968
-10.9045 -15.0196 -1.84723
-10.8133 -14.9982 -1.7932
-10.271 -14.8063 -1.53371
-11.4006 -15.3663 -2.1488
-11.1049 -15.166 -1.94579
-11.0079 -15.0998 -1.89105
-11.1992 -15.2263 -2.01062
-10.9164 -15.0456 -1.84299
-10.8096 -14.9918 -1.76834
-10.7964 -14.7862 -1.65117
-10.3702 -14.8821 -1.56973
-10.9063 -15.0585 -1.80328
-10.8065 -15.0566 -1.7755
-11.3065 -15.3017 -2.04481
-11.211 -15.2426 -1.98686
-11.4037 -15.372 -2.09452
-11.1009 -15.167 -1.89886
-10.207 -16.3381 -2.22816
-11.4112 -15.3941 -2.09906
-11.2204 -15.2541 -1.9528
-11.1162 -15.1918 -1.89301
-11.0241 -15.144 -1.83112
-10.1762 -16.4263 -2.24053
-9.39297 -15.8169 -1.67756
-11.3116 -15.3125 -2.00156
-10.6257 -14.958 -1.58961
-11.4473 -15.4102 -2.09474
-10.9154 -15.1229 -1.77005
-10.6128 -14.9839 -1.5977
-9.56209 -16.1077 -1.82696
-11.4458 -15.4039 -2.0457
-11.2543 -15.2593 -1.92294
-11.0004 -15.1521 -1.7933
-9.58546 -16.1035 -1.78881
-11.3517 -15.3543 -1.99645
-11.2475 -15.2557 -1.90099
-11.0348 -15.1691 -1.79286
-9.84744 -16.2258 -1.91774
-11.16 -15.254 -1.84227
-11.4601 -16.3074 -1.24438
-11.0497 -15.1854 -1.79693
-10.2283 -16.432 -2.13208
-11.2565 -15.3035 -1.89173
-10.0958 -16.3999 -2.04688
-11.1545 -15.2664 -1.80052
-11.024 -15.2727 -1.76701
-10.2424 -16.4738 -2.0807
-11.3552 -15.3701 -1.8987
-10.5582 -14.9715 -1.43646
-10.2548 -16.499 -2.04245
-10.5615 -15.0016 -1.43533
-11.4567 -15.4481 -1.94456
-11.169 -15.2758 -1.75965
-10.5689 -14.9803 -1.41153
-9.60027 -15.9585 -1.54209
-11.2625 -15.3579 -1.80265
-10.0999 -16.515 -1.97142
-10.5663 -15.027 -1.40236
-10.2663 -16.5262 -2.00489
-10.1045 -16.4567 -1.93489
-10.5581 -15.0329 -1.39713
-10.1269 -16.4973 -1.93005
-11.2845 -15.3732 -1.79873
-10.5818 -15.0178 -1.36425
-10.5746 -15.0458 -1.35947
-11.5159 -15.5099 -1.89897
-11.4005 -15.4634 -1.7962
-11.0655 -15.6868 -1.80824
-10.2797 -16.5917 -1.94394
-11.5043 -15.5061 -1.84948
-10.8725 -15.8737 -1.80474
-10.3048 -16.5782 -1.90244
-10.8756 -15.8854 -1.79338
-10.6742 -15.1573 -1.37844
-11.311 -15.4055 -1.70898
-11.2109 -15.4017 -1.64577
-11.4217 -15.478 -1.75172
-11.4067 -15.51 -1.74202
-10.7062 -15.1973 -1.30468
-10.0806 -15.8898 -1.39645
-11.3114 -15.4687 -1.66365
-10.7686 -16.2617 -1.80015
-10.7201 -15.1689 -1.30407
-10.0107 -16.0508 -1.41096
-11.3343 -15.468 -1.63913
-11.2151 -15.4501 -1.58871
-10.6772 -15.2839 -1.29927
-11.2409 -15.4094 -1.55944
-10.6619 -15.3341 -1.29758
-10.7939 -16.3222 -1.76725
-10.8206 -15.2996 -1.30193
-9.96704 -16.201 -1.38664
-10.8033 -16.3419 -1.7405
-11.2524 -15.4976 -1.54556
-10.6365 -16.3913 -1.68785
-11.2461 -15.4659 -1.50218
-11.2449 -15.5076 -1.4943
-11.0115 -15.8324 -1.54832
-10.8463 -15.3597 -1.249
-10.9558 -15.3997 -1.28864
-10.9427 -15.3734 -1.30021
-11.2544 -15.5167 -1.45033
-11.0474 -15.8083 -1.48936
-11.2701 -15.5446 -1.44081
-10.4971 -15.9158 -1.25827
-11.1724 -15.5287 -1.3644
-11.2929 -15.5583 -1.39936
-11.185 -15.5237 -1.34271
-11.0866 -15.4699 -1.28368
-10.9429 -17.1352 -1.88416
-11.1999 -15.5563 -1.34384
-11.2971 -15.6135 -1.39957
-10.9687 -15.4933 -1.2062
-10.9912 -15.4921 -1.19113
-11.1994 -15.5991 -1.29022
-10.5861 -16.1985 -1.25151
-10.4617 -16.5244 -1.30322
-11.0736 -15.6512 -1.20629
-10.8523 -15.9101 -1.21928
-10.4444 -16.5882 -1.30123
-11.1992 -15.6503 -1.24311
-10.8254 -15.9955 -1.234
-11.22 -15.668 -1.20085
-10.703 -16.3952 -1.25844
-11.2136 -15.7624 -1.19918
-11.1993 -15.8049 -1.2093
-10.9658 -16.1483 -1.23148
-11.3524 -15.7438 -1.22958
-10.93 -16.2462 -1.2281
-11.2371 -15.739 -1.16571
-11.4607 -15.8057 -1.27794
-11.3559 -15.7675 -1.21556
-10.779 -16.7301 -1.29577
-11.3524 -15.8064 -1.2093
-11.123 -16.1407 -1.22222
-11.4555 -15.8457 -1.24398
-11.327 -15.9415 -1.21185
-11.4853 -15.8564 -1.22954
-11.0607 -16.4571 -1.24818
-11.5935 -15.9196 -1.29473
-11.6103 -15.9559 -1.25557
-11.2715 -16.2417 -1.216
-11.2472 -16.3457 -1.24023
-11.6167 -16.0161 -1.24354
-11.5043 -15.9706 -1.16443
-11.7469 -16.0675 -1.2983
-11.43 -16.2825 -1.21439
-11.6095 -16.0989 -1.23835
-11.7478 -16.0969 -1.28297
-11.5965 -16.1847 -1.22955
-11.3836 -16.5216 -1.23391
-11.6066 -16.1205 -1.2105
-11.7503 -16.157 -1.2462
-11.516 -16.6494 -1.25994
-12.3018 -16.0555 -2.795
-12.2422 -17.395 -2.45913
-12.4398 -17.2148 -2.41885
-11.7003 -15.6144 -2.55537
-12.3547 -17.2407 -2.24334
-10.7646 -16.9953 -1.86452
-12.6629 -16.4898 -2.13978
-10.8663 -14.9535 -2.40106
-11.2448 -17.1496 -1.35902
-12.4053 -16.3725 -1.75018
-11.9185 -15.8439 -1.99023
-12.6472 -16.8973 -1.98916
-11.6816 -15.7302 -1.69866
-12.5058 -16.2816 -2.38014
-11.5519 -15.5039 -2.29987
-11.3994 -15.7935 -1.32656
-9.57791 -14.0623 -2.58995
-10.0909 -14.2439 -2.69202
-9.82697 -14.1796 -2.6348
-10.183 -14.3167 -2.74238
-9.47348 -14.0483 -2.487
-10.1606 -14.353 -2.74079
-10.0325 -14.1877 -2.57051
-10.0335 -14.2147 -2.5416
-9.69728 -14.0933 -2.38668
-9.59842 -14.034 -2.33066
-9.81984 -14.1429 -2.393
-9.71951 -14.101 -2.34701
-10.2062 -14.3927 -2.62888
-10.0406 -14.2583 -2.48572
-9.85887 -14.141 -2.3977
-10.1351 -14.3239 -2.53607
-9.77242 -14.3516 -2.54366
-9.74808 -14.0893 -2.33628
-9.63484 -14.0396 -2.27501
-9.85162 -14.1545 -2.3463
-9.8864 -14.2737 -2.44592
-10.1447 -14.3568 -2.49185
-9.94331 -14.2396 -2.39222
-9.88536 -14.1707 -2.29037
-9.76274 -14.1403 -2.24495
-10.2321 -14.4396 -2.53272
-9.22957 -14.1365 -2.19572
-9.67082 -14.0889 -2.17477
-9.24454 -14.1377 -2.17573
-10.3216 -14.6956 -2.70723
-10.2323 -14.809 -2.7687
-10.0924 -14.3171 -2.34729
-9.90715 -14.1888 -2.2357
-9.79131 -14.1483 -2.18771
-10.1876 -14.3767 -2.39519
-9.70193 -14.1191 -2.10118
-9.276 -14.161 -2.11175
-10.4435 -14.7763 -2.70265
-9.37602 -14.2483 -2.1487
-9.25813 -14.2029 -2.09004
-10.1374 -14.3258 -2.26234
-10.3936 -14.5491 -2.44173
-9.82631 -14.1854 -2.10854
-12.1152 -16.0634 -1.80009
-10.135 -15.0043 -2.76706
-10.2926 -14.5049 -2.39057
-10.1477 -14.3523 -2.23718
-9.3678 -14.2897 -2.11612
-10.6052 -14.8163 -2.65212
-10.234 -14.4179 -2.27734
-9.80171 -14.5414 -2.30187
-9.85489 -14.2094 -2.04239
-10.2515 -14.4231 -2.24326
-10.1499 -14.3941 -2.20068
-9.26559 -14.2626 -2.01762
-10.3355 -14.5078 -2.30312
-10.0361 -14.3378 -2.15065
-9.23141 -14.2997 -2.02131
-10.1019 -14.3121 -2.08478
-10.2528 -14.4567 -2.2142
-9.86783 -14.2389 -1.99532
-9.41846 -14.32 -2.01839
-10.6771 -14.7932 -2.52665
-10.3239 -14.696 -2.40655
-10.3119 -14.5549 -2.28266
-10.191 -14.8586 -2.49148
-10.237 -14.4823 -2.20971
-9.73431 -14.2252 -1.94784
-10.2728 -14.7772 -2.42163
-10.0997 -14.3243 -2.04385
-10.8532 -14.9705 -2.62671
-10.2595 -14.6465 -2.29319
-10.1134 -14.3357 -2.03473
-9.07985 -14.4934 -2.00671
-10.1445 -14.7744 -2.36058
-10.0531 -14.708 -2.29537
-10.2055 -14.3983 -2.08781
-9.73866 -14.2543 -1.91208
-10.8157 -14.8937 -2.50065
-9.88205 -14.281 -1.93256
-9.70457 -14.3006 -1.9106
-9.47636 -14.3488 -1.91297
-10.6561 -14.7576 -2.35013
-10.3178 -14.4649 -2.09356
-10.5638 -14.6981 -2.29724
-10.9696 -15.0556 -2.60594
-10.2324 -14.4249 -2.01435
-10.3223 -14.5132 -2.05634
-10.759 -14.8447 -2.3535
-10.4104 -14.5717 -2.09821
-10.34 -14.5115 -2.04921
-10.9161 -14.985 -2.47831
-10.5069 -14.6577 -2.15503
-10.3393 -14.5191 -2.00674
-10.2423 -14.4699 -1.9552
-10.0361 -14.3758 -1.8623
-9.6897 -14.3983 -1.83036
-9.29773 -14.5904 -1.89351
-9.61116 -14.5001 -1.83199
-10.6983 -14.8026 -2.1982
-10.3564 -14.5598 -1.94752
-10.445 -14.6218 -2.05008
-10.0465 -14.4237 -1.81571
-11.1264 -15.1688 -2.50662
-10.7962 -14.8665 -2.23321
-9.8653 -14.458 -1.77706
-9.55507 -14.5862 -1.81926
-11.2279 -15.2353 -2.554
-10.1519 -14.485 -1.82996
-11.2346 -15.4775 -2.71619
-9.49483 -14.6562 -1.82871
-10.4673 -14.6537 -1.99239
-10.2648 -14.5241 -1.86799
-11.3371 -15.3103 -2.58482
-10.453 -14.6529 -1.95119
-10.2644 -14.549 -1.85039
-9.4521 -14.7125 -1.82857
-10.8154 -14.8915 -2.18644
-10.0256 -14.4904 -1.76385
-9.3938 -14.7764 -1.84153
-10.9774 -15.0362 -2.30708
-10.7248 -14.8337 -2.10966
-9.96141 -14.5659 -1.77955
-9.76335 -14.6107 -1.76556
-9.37706 -14.8049 -1.83487
-9.31628 -14.8724 -1.84746
-11.1665 -15.2008 -2.39215
-10.7584 -14.8534 -2.08969
-9.73064 -14.6582 -1.7635
-9.26239 -14.9326 -1.85838
-10.2509 -14.61 -1.80524
-9.68114 -14.7178 -1.7725
-9.22749 -14.9781 -1.85863
-10.8396 -14.9176 -2.0991
-9.59273 -14.8133 -1.79974
-9.15558 -15.056 -1.87556
-11.3715 -15.324 -2.46584
-11.2648 -15.2577 -2.40788
-10.3992 -14.6564 -1.80237
-10.1862 -14.5625 -1.70337
-9.47176 -14.9532 -1.82759
-10.9547 -15.0128 -2.14874
-9.42276 -15.0139 -1.8348
-11.4757 -15.4361 -2.49363
-9.39972 -15.0484 -1.83216
-11.3061 -15.3012 -2.39951
-10.4059 -14.6703 -1.75785
-10.1541 -14.6084 -1.68221
-10.493 -14.7267 -1.8173
-9.75548 -14.8705 -1.75995
-9.23409 -15.2335 -1.87675
-11.396 -15.3662 -2.40343
-11.213 -15.2324 -2.28789
-11.1263 -15.1562 -2.20315
-11.5934 -15.5191 -2.53703
-9.24197 -15.2404 -1.8587
-11.6623 -15.6424 -2.60924
-11.6945 -15.6148 -2.59085
-9.21217 -15.2971 -1.84308
-10.5108 -14.7694 -1.79338
-10.4153 -14.7224 -1.69498
-11.6043 -15.5199 -2.48395
-10.8847 -14.9677 -1.97245
-10.7126 -14.6873 -1.73563
-10.8901 -14.9775 -1.95456
-11.6104 -15.527 -2.46478
-11.1618 -15.1935 -2.14278
-11.7157 -15.9298 -2.72922
-11.4265 -15.3877 -2.31627
-11.3458 -15.3195 -2.2513
-10.8185 -14.9502 -1.89162
-10.2905 -14.7354 -1.62834
-11.7148 -15.6215 -2.50493
-11.4461 -15.4093 -2.29508
-10.9991 -15.062 -1.99022
-10.5217 -14.8138 -1.69213
-10.7361 -14.7198 -1.66777
-10.3207 -14.7408 -1.59403
-11.4595 -15.4164 -2.24948
-10.8583 -14.75 -1.69995
-11.7182 -15.6507 -2.45642
-11.3705 -15.3382 -2.20534
-11.2433 -15.2589 -2.09266
-11.1564 -15.1959 -2.04205
-11.738 -15.6622 -2.44667
-11.641 -15.5704 -2.39782
-11.3708 -15.3513 -2.14914
-11.8387 -15.7453 -2.49158
-11.457 -15.3994 -2.19161
-11.7471 -15.6683 -2.40136
-11.3026 -15.3042 -2.08941
-10.6496 -14.8853 -1.67079
-10.5198 -14.9031 -1.64804
-11.8566 -15.725 -2.45124
-11.3573 -15.3471 -2.08865
-11.9522 -15.8114 -2.49767
-11.6633 -15.5914 -2.2967
-11.4778 -15.4365 -2.16916
-11.857 -15.7608 -2.44057
-11.7598 -15.6762 -2.34832
-11.4984 -15.4603 -2.14583
-10.9617 -15.1093 -1.7979
-11.6753 -15.6088 -2.25707
-10.7388 -15.021 -1.66119
-11.7693 -15.7012 -2.33393
-11.6876 -15.6027 -2.23615
-11.5078 -15.4683 -2.09882
-11.7711 -15.698 -2.30161
-11.6153 -15.5464 -2.19633
-11.2131 -15.27 -1.89923
-10.1944 -16.2692 -2.22946
-10.7586 -15.0537 -1.64342
-11.7011 -15.6131 -2.19873
-11.3054 -15.3371 -1.94102
-10.7708 -15.007 -1.61776
-11.8917 -15.7705 -2.342
-10.859 -15.0773 -1.66568
-11.5039 -15.4697 -2.0476
-10.6698 -14.9987 -1.54092
-11.796 -15.7149 -2.24152
-11.5261 -15.4911 -2.04603
-10.7078 -15.788 -1.96497
-11.1691 -15.3002 -1.79316
-10.0338 -16.3786 -2.09023
-9.92265 -16.2873 -1.99437
-11.6019 -15.5533 -2.04819
-11.9103 -15.8107 -2.24724
-11.6319 -15.5795 -2.05659
-11.0899 -15.2056 -1.67696
-10.5871 -15.0022 -1.42196
-11.8239 -15.7314 -2.18291
-11.7013 -15.6471 -2.09089
-11.4625 -15.4674 -1.90337
-11.8339 -15.7292 -2.16044
-11.7345 -15.6748 -2.09214
-11.931 -15.8124 -2.22803
-11.6546 -15.6097 -1.99818
-10.3954 -16.4021 -2.09999
-11.8453 -15.7605 -2.14146
-11.5666 -15.5432 -1.94341
-10.1969 -16.4896 -2.0559
-11.4456 -15.4631 -1.84627
-10.414 -16.4053 -2.06294
-10.5707 -15.0858 -1.37636
-11.7556 -15.6969 -2.05001
-11.4692 -15.4996 -1.83709
-10.4335 -16.3979 -2.0322
-11.9637 -15.8253 -2.14449
-11.2665 -15.4334 -1.72984
-10.4487 -16.406 -1.99846
-10.2081 -16.5151 -1.99532
-11.9573 -15.8486 -2.13993
-11.7626 -15.7101 -1.99377
-11.6711 -15.6405 -1.944
-10.7221 -15.1076 -1.36494
-11.8647 -15.7789 -2.05892
-11.5824 -15.5759 -1.86418
-11.4829 -15.5199 -1.811
-11.4944 -15.5532 -1.79483
-10.4581 -16.4503 -1.94971
-10.7773 -15.2628 -1.40147
-11.961 -15.8647 -2.10198
-11.8609 -15.7946 -2.04122
-11.3413 -15.603 -1.76029
-11.8949 -15.812 -1.99829
-11.8039 -15.7553 -1.94586
-10.4755 -16.4637 -1.90845
-12.1006 -15.9556 -2.14318
-12.009 -15.8706 -2.05728
-11.7017 -15.6769 -1.85651
-10.486 -16.4707 -1.88456
-11.8033 -15.761 -1.89766
-11.6084 -15.6496 -1.78482
-11.2175 -15.426 -1.55568
-11.7032 -15.6976 -1.84929
-11.4796 -15.6523 -1.7437
-11.3108 -15.5197 -1.60893
-10.8129 -15.2816 -1.32782
-10.2949 -16.6002 -1.79973
-11.6063 -15.6644 -1.74722
-11.3176 -15.5461 -1.58595
-10.303 -16.5634 -1.79288
