11.1314 3.1022 -2.19817
13.5721 4.40329 -2.05267
13.1354 4.62161 -1.93961
13.0547 4.62808 -2.04316
11.3331 2.99658 -1.41882
10.906 2.63947 -2.08758
10.6616 2.58524 -1.60581
11.8103 3.60458 -1.59317
13.1921 3.79196 -1.54952
11.2532 1.74136 -1.1231
13.0358 3.53934 -1.52707
12.7325 4.5228 -2.19429
10.8083 1.26706 -1.5779
11.2882 3.20847 -1.94696
10.7043 2.72266 -2.20668
12.1533 3.61227 -1.32877
12.6339 4.38504 -2.2077
12.3359 3.08475 -1.11216
11.4198 3.04288 -1.20794
10.2415 2.20331 -1.88345
13.0079 4.58655 -2.22093
11.7576 3.62189 -1.67801
11.2329 3.18738 -2.04536
11.9912 3.81113 -1.84388
12.1468 3.93954 -1.83952
12.3518 4.17221 -2.0127
10.5704 1.38684 -1.95735
10.3627 2.39233 -1.99642
12.5669 4.34476 -2.28387
12.0405 3.85855 -2.12768
12.0061 3.3826 -1.22948
10.3783 2.358 -1.69427
10.4311 2.35846 -1.96082
12.4745 4.00751 -1.97023
10.4743 1.68924 -1.85408
10.7891 2.64713 -1.49476
10.7896 2.68121 -1.51304
13.1476 4.10056 -1.5746
11.4037 3.35086 -2.14268
10.7499 2.20163 -1.13594
10.616 2.52417 -1.61624
10.1891 1.98813 -1.95803
10.7499 2.49063 -1.31147
10.9209 2.09952 -1.09288
10.7717 1.19708 -1.93263
12.4855 4.20328 -1.83993
10.9373 1.14258 -1.61499
10.7161 2.69907 -2.08364
11.109 2.55325 -1.09193
10.8905 2.85419 -1.84547
11.2029 1.76779 -1.11098
11.0907 2.99667 -1.69552
10.2183 2.01593 -2.07289
11.0934 3.05557 -2.04823
13.5608 4.10641 -1.66273
13.4283 4.3425 -1.69803
10.9581 2.92429 -2.19385
11.0979 2.31915 -1.05001
10.6961 2.48288 -1.8476
11.1266 2.78949 -2.33559
10.2623 2.04626 -2.18739
12.6877 4.29492 -1.64492
12.9908 3.86011 -1.49542
13.2576 2.79623 -1.49483
10.3595 2.4025 -2.34468
11.5098 2.7532 -1.0452
13.7912 4.08713 -1.82494
11.2484 3.19156 -2.19673
13.82 4.1506 -1.99625
12.9968 4.49911 -1.69523
11.1589 2.62018 -1.14856
12.6545 2.41275 -1.1582
12.7324 3.93161 -1.53264
11.4383 3.25363 -1.54939
10.5382 2.4855 -1.96902
10.9371 2.71359 -1.40644
11.6815 3.52551 -1.7109
11.4977 3.43051 -1.89425
12.3173 2.80447 -1.10218
10.2931 1.99307 -1.55158
11.4389 2.89136 -1.08988
11.1101 3.09555 -1.89641
12.1581 3.2464 -1.1035
10.4306 2.1499 -1.43369
13.1866 4.02637 -1.573
12.009 3.64087 -1.45758
10.3515 2.46323 -2.29392
10.4474 2.28281 -1.45984
10.2455 1.99603 -1.7543
11.4585 3.3479 -2.145
10.8664 1.74075 -1.17062
10.5573 1.40561 -1.96582
11.235 1.88446 -1.11032
12.7922 4.36526 -1.92693
13.0469 4.43408 -1.61337
10.6393 2.07614 -1.19321
10.2848 2.29178 -1.94775
11.2701 2.93039 -1.37014
12.4465 4.2345 -2.24069
12.1093 3.22305 -1.1195
11.1015 2.99338 -1.50496
13.0126 3.60754 -1.55668
12.8928 4.53326 -1.84529
11.8592 3.68588 -1.74049
11.5394 3.42972 -1.64393
12.0303 3.44232 -1.15326
11.6855 3.53937 -1.75127
10.2998 2.29825 -1.83931
11.1987 3.17514 -2.00442
11.109 2.59277 -1.10614
12.9633 2.55362 -1.7714
11.667 3.52386 -1.6864
11.1357 2.55161 -1.04838
12.71 4.4404 -2.1006
12.8278 4.44962 -1.74834
12.6309 4.31213 -1.68198
11.1722 2.65097 -1.10314
11.5865 3.43729 -1.60096
10.3397 1.9928 -1.64724
10.4033 2.28052 -2.26181
11.8335 3.70407 -2.01086
12.184 3.95999 -1.92875
11.1142 2.95856 -1.53055
11.5885 2.90558 -1.03526
11.2985 3.24002 -1.79803
11.5186 2.69431 -1.04436
12.7409 2.52704 -1.24516
13.0438 4.54718 -1.8466
10.7023 2.63339 -1.64816
12.5911 4.29883 -2.27517
12.4436 4.18552 -1.70056
10.2503 1.94205 -1.81237
11.5602 3.44128 -2.22957
13.0974 4.01382 -1.56931
10.6555 2.67691 -2.15752
13.05 4.53247 -1.81467
10.4978 1.57553 -1.58717
11.5615 3.45059 -1.83332
10.9342 2.90042 -2.10749
12.5444 4.28583 -2.31529
11.9181 3.59854 -1.46458
13.0451 4.6098 -2.04456
10.3485 1.71814 -1.86106
12.3466 4.14911 -2.29487
11.5063 1.87939 -1.11709
11.2531 1.66489 -1.15224
12.2457 2.83014 -1.07961
13.7862 4.12238 -1.90691
11.0434 3.00934 -1.98926
11.6459 3.53204 -2.18929
11.137 3.09402 -1.85416
10.3932 2.40689 -1.98712
12.7348 4.44855 -1.79609
11.2911 3.2081 -1.98646
10.5151 2.46198 -2.07951
10.4429 2.37347 -1.56312
11.4987 3.39252 -2.09742
10.5003 2.49911 -1.89629
13.5721 3.64401 -1.60941
12.6929 4.4353 -2.29985
13.4664 3.33401 -1.59095
12.8888 4.44669 -2.13921
12.1893 3.77731 -1.36916
11.3113 3.07123 -1.44738
10.3036 2.14227 -1.603
10.2479 2.23007 -2.04933
12.1931 2.13303 -1.10941
12.1077 3.64923 -1.2734
10.2269 2.10898 -2.14625
11.8532 3.62106 -1.56929
10.5015 2.48154 -2.18876
10.5995 2.51202 -2.28089
12.2649 4.05624 -1.87592
10.7904 2.73404 -1.70014
10.8364 2.5018 -1.90625
11.3949 3.27197 -1.61582
11.3112 3.2428 -1.84521
11.8896 3.75604 -2.04304
11.4443 2.35202 -1.02927
11.5493 3.07019 -1.16482
11.4334 1.35495 -1.46379
10.3224 2.39304 -2.12929
10.9332 1.64636 -1.16824
10.4909 2.491 -1.98937
10.6812 2.56476 -1.53219
11.8491 3.6377 -1.59869
13.5453 4.31464 -1.77118
10.4846 2.49396 -2.29249
11.1038 3.08084 -1.84038
12.427 2.41678 -1.11146
10.4672 1.7467 -1.50621
13.9071 4.00595 -2.16492
10.59 2.23718 -1.30357
10.7418 2.13416 -1.13355
12.2549 3.84283 -1.3942
10.4077 2.44769 -1.79329
12.762 4.09097 -1.53516
11.7287 3.15082 -1.08353
10.326 2.24088 -1.65559
10.3591 1.82462 -1.57083
10.1936 2.03546 -2.00517
10.938 2.84979 -1.59813
11.2508 3.18585 -1.8508
11.9176 3.6806 -1.5946
11.8392 3.70493 -1.89339
11.3949 3.24173 -1.54173
10.9244 2.86646 -2.2488
11.1357 3.03534 -1.55339
10.5026 2.4371 -2.13118
10.5454 1.54489 -1.84221
10.9496 2.94211 -1.90384
12.7005 4.39868 -1.73825
10.9317 2.9332 -1.86557
10.1899 1.99686 -1.99837
11.2005 3.14212 -1.74476
12.6392 4.0181 -2.32153
11.0492 2.98016 -1.61098
11.3479 3.30829 -2.03227
11.3542 3.28635 -2.19107
10.3132 2.08881 -1.54976
13.0903 4.487 -1.83128
11.129 1.56555 -1.17628
11.3049 3.22964 -1.74468
10.6443 2.64279 -2.24553
12.3817 4.17599 -1.81054
12.0193 3.87463 -1.87025
12.0977 3.89261 -1.43623
11.9565 3.77341 -1.39291
10.7327 2.36292 -1.24397
10.7859 2.54214 -1.39832
11.0881 3.0094 -1.74076
13.6717 3.32507 -1.61753
11.8037 3.68698 -2.09264
10.7401 1.31659 -1.82732
11.8132 3.67404 -1.63159
13.4142 3.73685 -1.59996
11.1414 2.50708 -1.04758
11.7904 2.93365 -1.04102
12.3483 4.14124 -1.99794
10.6153 2.64465 -1.89579
12.9734 4.22461 -1.60039
10.5236 1.43384 -1.96608
13.3329 3.89725 -1.59024
10.8186 2.63779 -1.39956
11.7455 3.54532 -1.59558
10.3883 2.39261 -1.89677
11.5241 1.98749 -1.10181
11.3826 2.8457 -1.06162
10.8353 2.72604 -1.50912
10.4907 1.52054 -1.97985
12.514 4.13528 -1.58457
11.2517 2.95859 -1.37308
11.3873 2.87582 -1.08941
12.3868 3.95212 -1.44979
10.5226 1.48108 -1.98429
13.0236 3.75037 -1.51966
11.282 3.19006 -1.89942
12.5706 4.28021 -1.81416
12.4269 4.26001 -2.32745
10.4061 2.08643 -1.41957
12.0954 2.29614 -1.08878
11.5393 3.38953 -2.22487
11.1942 3.10773 -1.78976
10.977 1.00366 -2.06769
11.7693 3.57233 -1.48456
11.8334 3.72006 -1.90956
11.5935 3.4729 -2.22645
10.5148 2.58218 -1.74527
13.43 2.97366 -1.60847
12.3433 4.13821 -2.09436
11.1243 2.18701 -1.0944
13.197 3.74301 -1.54079
11.66 2.32333 -1.02994
10.8395 2.40216 -1.14674
12.4417 4.24869 -2.39487
11.0255 2.98819 -1.81219
11.091 1.72714 -1.13001
10.5542 2.55536 -1.97902
10.9041 2.60541 -1.34929
11.7106 2.36337 -1.04826
11.1766 3.10965 -2.05913
11.3535 3.21008 -1.64349
12.5269 4.14774 -2.21206
11.2638 3.18134 -2.23335
12.1055 3.59625 -1.23514
12.0615 3.83893 -1.64782
11.4401 1.85339 -1.07772
10.218 2.14218 -1.97744
11.9706 2.24075 -1.07946
12.8021 4.50497 -2.17698
11.8114 1.86615 -1.12184
12.2134 2.44293 -1.05157
12.0916 3.58392 -1.2065
10.4862 2.53397 -2.34613
11.5402 3.06345 -1.23755
11.5404 2.72879 -1.02824
10.6903 2.43506 -1.39476
11.3261 1.81265 -1.12756
10.2369 2.03317 -1.79157
12.6319 4.37784 -1.70053
10.4351 2.44406 -2.19978
12.3317 4.08139 -2.16038
12.7243 4.38306 -2.20472
11.9927 3.60138 -1.5047
10.7895 2.58746 -1.44646
10.4868 2.46277 -2.00951
10.6445 2.60052 -1.8416
12.118 3.07913 -1.08631
12.3244 4.09512 -2.18559
11.9177 3.72867 -1.60387
10.3078 2.30118 -1.79136
11.9807 3.75909 -1.6484
11.6626 2.07672 -1.05421
10.9059 2.89008 -1.89589
10.8445 2.44113 -1.19466
12.5743 4.10873 -1.5324
11.393 3.33383 -2.10855
10.6381 2.63959 -1.89733
11.9843 3.39978 -1.20795
13.4234 4.37912 -1.71219
11.843 3.56042 -1.52827
12.2902 3.99652 -1.59569
11.3327 3.25397 -2.09114
10.6626 2.73172 -2.30653
11.1529 3.10028 -2.0037
10.562 2.48795 -1.54563
10.7442 2.703 -2.37564
12.1732 2.78101 -1.08937
10.6195 2.52151 -2.33054
12.418 4.22198 -1.93011
11.7448 3.61136 -2.20604
11.4022 1.55792 -1.14946
11.6743 3.56631 -2.16445
12.6085 4.35406 -2.13493
13.365 3.56802 -1.5717
10.7129 2.74466 -2.00239
13.7421 4.16531 -2.20515
11.1492 2.94986 -1.49301
11.5914 3.48334 -2.14577
13.1739 4.38492 -1.64355
11.1312 3.09601 -1.94613
12.0514 1.99149 -1.10667
13.3946 4.45047 -1.75029
11.2133 2.96658 -1.44878
10.3294 1.68536 -2.06043
13.0511 3.95193 -1.55136
13.4515 3.19513 -1.59914
12.0312 3.80829 -1.79103
12.9685 3.66138 -1.55233
13.4702 4.45908 -1.8628
10.6461 2.43298 -1.41117
12.6025 4.33981 -1.79266
12.7977 4.16052 -1.51803
13.4821 4.45236 -2.18757
12.2586 2.15567 -1.09251
12.0411 3.78873 -1.35555
11.3892 1.83447 -1.12447
12.7142 4.45767 -2.13783
12.3925 4.15421 -1.92543
13.4409 4.431 -2.11956
10.4822 2.28824 -1.48775
10.8996 2.86194 -1.87986
10.5105 2.19559 -1.35427
11.9823 3.39825 -1.14397
10.3977 2.28635 -1.55371
11.6053 3.45657 -1.64404
10.487 1.7117 -1.48761
11.4001 3.29175 -1.94992
12.1738 3.95059 -1.76079
13.4373 4.306 -1.68747
13.997 3.84219 -1.88452
11.9814 3.33813 -1.10611
11.5531 3.43729 -1.79614
11.4547 3.27374 -1.49405
11.5754 3.45255 -1.86143
11.6999 3.59399 -2.19641
10.5638 2.58548 -2.14107
11.0834 3.00256 -1.78373
10.8304 2.58755 -1.90358
12.7506 4.38852 -1.69816
12.5894 4.30292 -2.04364
10.8674 2.8074 -1.77136
10.5019 2.52701 -2.13529
12.2465 3.83279 -1.36455
12.4826 4.26117 -2.29754
12.9583 3.87567 -1.51891
13.0058 4.25488 -2.04776
13.1508 4.09592 -1.56277
12.0605 3.90875 -2.08773
12.6756 3.77487 -1.47558
12.0667 3.54822 -1.15289
10.2332 2.15948 -1.98708
12.4108 3.93713 -2.09084
12.4238 4.22293 -1.732
13.9687 3.94336 -2.25503
11.3251 3.2377 -1.75409
12.0446 3.88239 -2.00823
11.9865 3.81674 -2.12288
12.5302 4.24838 -1.85604
11.5356 3.39261 -1.70085
10.2019 1.90311 -1.93362
11.6486 3.54495 -2.04281
12.9336 4.43112 -2.12772
12.9519 4.33762 -2.00562
12.329 3.99203 -1.57919
10.2786 2.25586 -1.89701
10.9435 2.89413 -2.19129
11.3265 3.25269 -1.90362
13.1072 4.58432 -1.85168
12.3412 4.14124 -2.24701
12.2105 4.04562 -2.18896
11.3474 3.30191 -1.8954
11.3198 1.35785 -1.44415
11.9246 3.7543 -2.06298
12.3162 4.14111 -2.19234
12.5554 4.2413 -1.65286
11.1066 2.33884 -1.05208
12.0387 2.55252 -1.0558
13.8057 4.16879 -1.97093
13.2321 3.40369 -1.57681
13.2311 4.49435 -1.69412
10.5539 2.20889 -1.32957
12.6636 4.42407 -1.78382
13.6292 4.32352 -2.12806
12.3225 2.92731 -1.11512
10.2541 2.14032 -1.70012
12.4155 4.15012 -1.68154
10.919 2.91934 -1.95169
12.519 4.22141 -1.66665
11.745 3.63745 -1.99503
12.4771 4.23386 -1.75639
13.1466 4.60013 -2.05653
10.8044 2.44958 -1.20391
10.3482 1.78833 -1.79239
10.516 1.54666 -1.59097
11.4652 2.94998 -1.083
10.6618 2.56271 -1.58595
11.8179 2.05057 -1.07218
12.4906 4.24872 -2.09368
13.4742 3.68857 -1.61028
13.1648 4.40237 -1.65058
12.0047 2.60495 -1.05604
10.8931 2.75031 -1.48814
10.6007 1.76645 -1.40975
11.4438 3.0527 -1.29268
13.2634 2.78906 -1.52058
10.9988 2.82983 -1.4572
13.3881 4.52304 -2.06158
11.4674 3.32193 -1.60514
12.6584 4.4368 -1.94494
11.2906 3.25699 -1.94148
10.6995 1.46307 -1.48614
10.5389 2.53152 -1.77966
12.2359 4.00864 -2.19938
12.3411 3.99869 -2.14764
12.7362 4.24039 -1.53962
11.5902 3.39401 -1.54783
13.3215 4.19495 -1.62746
11.9583 3.73666 -1.60117
11.678 3.5033 -2.24673
10.8737 2.77582 -2.20838
12.8411 3.98221 -1.51525
10.2345 1.91553 -2.02452
12.0331 3.79816 -1.59896
12.1874 3.86307 -1.57153
10.4891 2.45917 -1.68216
11.6011 1.80801 -1.12836
13.1434 4.19513 -1.59595
11.3361 3.27051 -1.80098
11.0983 3.03925 -2.23595
11.0414 2.44223 -1.05488
11.5296 3.28851 -1.4947
11.2349 2.69162 -1.05477
11.8505 3.66913 -1.73099
12.9324 2.6564 -1.2958
12.5107 4.19125 -1.6001
10.5997 2.48862 -1.85526
13.2495 3.28757 -1.5775
10.5 2.49374 -2.33801
11.8546 3.19669 -1.08307
12.1866 3.94235 -2.2403
10.3883 2.51578 -2.34628
13.0384 2.64017 -1.33772
12.5475 4.09915 -1.51143
11.8453 3.5459 -1.49853
12.5415 4.29636 -2.32736
11.1372 3.12534 -1.89727
13.0329 4.59781 -2.18281
11.5817 3.46683 -1.8858
11.4383 3.08334 -1.30564
13.9344 3.97452 -2.18868
12.3835 4.17395 -2.06768
12.0544 3.09006 -1.08063
12.3641 4.1983 -2.33489
11.8383 3.25806 -1.06703
11.3891 3.32321 -1.95368
11.7869 3.20602 -1.06401
10.3639 2.34744 -2.2915
11.1848 3.12885 -1.71378
12.0872 2.96405 -1.07737
10.2941 2.05078 -1.59033
11.9463 3.78961 -1.89534
10.3641 2.2489 -1.5931
12.3118 4.05927 -1.68604
10.7387 2.29813 -1.16497
12.1108 3.3078 -1.15245
12.2749 2.23874 -1.10265
11.506 2.99921 -1.1388
11.0378 2.793 -1.38778
11.0379 2.89987 -1.54231
10.2357 2.14169 -1.94382
11.6077 3.52246 -1.84525
11.1938 3.00613 -2.2949
11.914 3.7764 -1.94559
11.4991 3.23953 -1.40028
10.8069 2.48788 -1.24268
12.0545 3.88562 -2.23224
11.2307 3.10306 -1.58943
12.8105 4.47226 -2.04666
10.2913 2.27811 -1.70429
10.9571 2.94653 -2.04032
11.7957 3.6813 -1.84495
10.4502 2.49954 -1.93512
12.0458 3.08835 -1.05689
12.5083 4.05945 -1.51092
11.5139 3.42789 -1.85884
13.4683 4.44052 -1.84687
11.7011 3.06018 -1.04449
13.138 4.55588 -1.82821
12.5096 4.32547 -2.35533
10.8345 2.83682 -2.14852
11.0618 3.01593 -2.04278
10.3225 1.70831 -2.07417
11.1303 2.60403 -1.09337
10.5858 2.26389 -1.33198
11.5947 3.34137 -1.49887
10.8495 2.85468 -1.94701
10.6197 2.49881 -2.31013
10.693 2.65488 -1.69514
10.9355 2.83215 -1.51774
12.4443 4.22141 -1.78162
11.5025 3.33249 -1.54506
11.6939 3.59738 -2.14331
12.256 4.00031 -1.94934
10.9452 2.4668 -1.12565
11.8104 2.71408 -1.03444
12.3297 3.84647 -1.40461
11.1436 2.85141 -1.35511
12.4162 4.10406 -1.93195
12.8085 3.8175 -1.53685
10.3942 2.14987 -1.44716
10.915 1.16937 -1.59664
13.1478 4.60477 -1.89405
12.1938 3.93604 -1.64307
10.8896 2.82089 -1.57006
11.8856 3.2576 -1.18402
10.7427 2.7482 -2.04943
11.7654 3.6297 -2.10433
11.494 3.25003 -1.44279
11.8047 2.28476 -1.05232
11.2571 2.58353 -1.03893
10.6555 1.70599 -2.10737
12.696 4.42908 -1.90663
12.1303 3.01617 -1.088
13.089 4.48471 -1.65655
11.7259 3.61743 -1.87192
12.2033 3.96002 -1.68732
10.8882 2.88638 -2.14373
13.0014 4.59055 -2.08944
10.5835 2.56015 -2.11604
12.3913 3.99557 -1.4925
12.6357 4.11456 -1.51853
10.262 2.13562 -1.75059
10.7631 2.32117 -1.1201
12.0025 3.87955 -2.09401
12.5381 4.29297 -2.18534
12.1421 3.67538 -1.3022
12.8125 4.55585 -1.96386
11.9663 3.77527 -1.62003
11.1131 2.2739 -1.07743
10.2193 2.11826 -2.17219
13.1439 3.96069 -1.53866
11.3046 1.97394 -1.08791
10.3548 2.39981 -2.04528
12.643 4.40256 -2.23969
12.5036 4.1687 -2.03762
13.1687 3.16754 -1.52525
10.4072 2.19 -1.45644
12.1895 3.88086 -1.55103
10.6026 2.58994 -1.69572
11.4474 3.39862 -2.14028
13.3697 4.46194 -1.83229
11.2332 1.93176 -1.0553
13.2234 4.43213 -1.66562
10.6896 2.77597 -2.32957
11.8746 2.79749 -1.02801
12.0965 3.91412 -2.22747
11.3151 3.03091 -1.41844
12.1993 3.99442 -1.84608
10.3418 2.4379 -2.14597
11.7591 3.58731 -1.64547
13.0241 3.9957 -1.54535
11.7513 3.55399 -1.64502
10.9198 2.79315 -1.56911
12.13 3.60437 -1.22816
10.644 2.55191 -1.54557
11.5192 3.46286 -2.17588
11.9452 3.7836 -2.22097
13.1007 4.29672 -1.6272
11.7084 3.54739 -1.63567
10.6584 2.60187 -2.27671
12.424 4.22324 -1.94534
10.5367 2.19662 -1.30613
11.4352 2.11841 -1.05041
12.9233 3.92056 -1.52892
11.5462 3.41318 -1.77891
12.6098 4.43732 -2.32652
11.9722 3.66937 -1.57324
12.1393 3.97504 -2.10907
11.6359 3.33441 -1.4549
11.4368 1.74484 -1.11837
10.9784 2.96774 -1.97717
10.5991 2.53745 -1.6503
11.4117 3.15488 -1.43342
11.8713 3.71725 -2.09836
12.668 4.42648 -1.97846
11.1427 2.60538 -1.14313
13.6668 4.31326 -2.20683
12.9631 3.88318 -1.53213
12.5993 4.39676 -2.38752
12.2514 2.45486 -1.09988
12.6401 4.33466 -1.81307
10.4872 2.504 -2.09748
10.3596 2.27972 -1.54793
10.3005 2.32605 -1.75044
12.9002 4.55142 -1.99298
12.2488 4.04971 -2.14252
11.9799 3.45758 -1.17569
12.9173 4.1434 -1.5533
12.6179 4.26535 -1.61732
10.8936 2.64429 -1.39236
12.9341 4.29321 -1.55753
12.5571 4.05142 -1.52079
12.4254 2.49307 -1.08252
12.9001 4.19513 -1.88557
13.0848 2.70871 -1.45344
11.8937 3.71533 -2.24098
10.3408 2.35345 -2.04124
11.448 3.19754 -1.45084
13.3965 2.99814 -1.59399
10.585 2.34769 -1.4382
12.6966 4.40671 -1.88721
10.3007 1.82745 -2.18543
10.4347 2.4567 -1.99864
12.584 4.25183 -1.81461
11.1359 2.7919 -1.36587
11.6245 3.54929 -1.89933
10.5409 2.44339 -2.06562
10.3248 2.26035 -1.68184
12.2582 4.03976 -1.84149
10.8414 2.83655 -1.84064
12.3536 4.18668 -2.03015
10.5688 2.59964 -2.27334
10.6418 2.60172 -2.13579
10.4744 2.35733 -1.54375
11.1486 2.86813 -1.37902
11.446 3.09702 -1.33629
10.8602 2.83218 -1.78241
12.8547 3.93936 -1.51109
11.7946 3.20407 -1.08971
10.2346 2.1925 -2.042
10.7517 2.49091 -1.34403
11.0401 2.81418 -1.43742
11.6481 3.49652 -1.69184
11.4604 3.37323 -1.88195
13.3914 4.50632 -2.06881
13.301 4.41306 -1.7154
11.9475 2.6051 -1.04424
13.1225 4.45523 -1.65343
11.644 2.58231 -1.01706
10.8643 2.40695 -1.09962
10.371 2.0816 -1.56845
11.9341 3.76129 -2.0847
13.3864 2.88623 -1.55285
10.7005 2.64047 -1.89085
13.4277 4.30334 -1.66579
12.6524 4.31866 -1.80669
11.1717 2.14691 -1.09509
11.9258 3.31839 -1.12718
11.8047 3.66837 -1.92259
11.875 3.67886 -1.66316
10.2614 2.34262 -1.99513
10.5006 2.4826 -1.64672
12.1242 3.63739 -1.24837
12.1618 3.95367 -1.8788
10.4984 1.60245 -1.79636
10.2531 1.84003 -1.95182
11.061 3.04053 -1.99775
11.0489 2.49197 -1.0667
10.2421 2.09882 -1.74628
12.842 4.44772 -1.69227
12.5455 4.39139 -2.40191
13.153 4.59436 -2.08578
12.9851 3.89496 -1.49768
10.6924 2.26675 -1.22622
11.0718 2.3902 -1.05846
13.276 4.60086 -2.19448
12.4812 3.86899 -2.18204
12.6534 4.47208 -2.34291
10.7957 2.75717 -2.19748
10.6407 2.64835 -2.10338
12.6788 3.92053 -1.49637
11.7398 3.02945 -1.03966
11.215 3.15738 -1.88811
12.5113 4.2851 -1.65205
12.7399 4.2995 -1.5988
12.3297 2.88525 -1.11232
12.7102 2.44315 -1.16792
11.7141 2.96301 -1.01382
10.8603 1.12695 -1.93599
10.3425 1.73999 -1.87174
10.5625 2.58047 -2.19155
13.2154 4.49771 -1.65011
12.6977 4.43094 -2.05159
10.2856 2.14972 -1.62697
11.5628 3.34406 -1.49166
11.3175 2.02133 -1.05832
12.2201 3.86737 -1.50241
11.5846 2.64893 -1.01003
11.2968 3.14539 -1.64585
11.3345 3.10065 -1.48152
11.4868 2.94138 -1.05733
11.4299 2.88638 -1.05804
11.0341 2.39969 -1.06007
11.4922 3.39426 -2.19858
11.4551 2.12479 -1.08676
11.5839 3.4964 -2.04575
10.8385 1.37759 -1.45153
10.3793 2.48102 -2.24629
10.3399 2.05209 -1.49034
10.6343 2.27957 -1.26231
12.361 4.18753 -2.19032
12.9078 3.8801 -1.52927
12.7081 4.31363 -1.82378
11.7429 2.24875 -1.05074
11.4216 3.0741 -1.24278
11.4793 3.20779 -1.48098
11.8498 3.24857 -1.10117
11.6863 3.59131 -2.04371
10.906 2.49109 -1.94951
12.9837 4.12555 -1.54975
11.4925 2.95667 -1.09327
11.0749 2.02466 -1.1105
13.5215 3.89655 -1.63319
12.2689 3.87216 -1.45956
11.0164 2.98663 -1.92522
12.1386 3.94543 -1.79881
12.938 4.5871 -1.94475
11.904 3.74268 -1.79029
12.58 4.28552 -2.23527
10.7249 2.64511 -1.65302
10.8563 2.68393 -2.04079
12.8645 4.56445 -2.0663
13.1814 3.14609 -1.51755
11.6358 2.82999 -1.01823
10.9613 2.95422 -2.08432
13.2536 3.85873 -1.57553
10.7909 2.40103 -1.24027
10.371 2.46808 -2.34869
12.1341 2.24362 -1.08307
13.1651 2.79453 -1.43948
12.1383 3.98715 -2.0014
12.9258 3.81747 -1.52372
10.5594 2.46262 -1.58376
10.9308 2.87613 -1.55296
10.3896 2.44135 -2.3813
11.5037 3.43109 -1.94842
13.2343 3.54352 -1.53444
11.4787 3.10077 -1.39376
12.571 4.19293 -2.04485
10.83 2.54819 -2.16576
12.2236 3.96802 -1.72227
12.2038 3.92947 -2.28825
11.5142 3.43152 -1.99252
11.8479 3.04984 -1.02496
10.4335 2.45377 -2.10126
10.445 2.44644 -1.8876
10.4874 2.32733 -1.45963
11.5458 3.15033 -1.28748
12.022 3.75775 -1.58381
12.0106 3.72998 -1.53921
11.592 3.48471 -1.79424
11.5439 3.19727 -1.30514
11.2888 3.1188 -1.6333
11.1512 1.39377 -1.28759
13.3557 4.55234 -1.9976
12.9947 2.6814 -1.32708
13.9921 3.56714 -1.75724
11.1914 2.55005 -1.06948
11.5612 3.44571 -2.13195
11.3361 3.26334 -1.93104
11.7974 3.50116 -1.45459
10.2724 2.15457 -1.75483
11.5604 3.47873 -2.10094
12.6672 4.40335 -2.39217
10.2869 2.09897 -1.6054
11.4604 3.38013 -1.83252
13.7771 3.47464 -1.67598
12.4379 4.15991 -1.68524
11.9434 3.78876 -2.15195
12.389 4.21588 -2.27667
11.0582 2.97803 -1.6475
10.5798 2.39813 -1.48403
11.7466 3.59543 -1.74336
10.6971 2.24307 -1.15807
12.9739 4.55383 -1.76989
10.4364 2.54327 -2.38798
13.9409 3.96091 -2.20688
10.6803 2.59885 -2.30793
13.5098 4.3511 -1.76746
11.8189 3.70114 -1.97914
11.5344 3.10321 -1.23606
12.1071 3.66928 -1.28012
10.5372 2.54117 -2.14794
10.3176 2.13922 -1.54891
11.7138 3.57224 -1.66183
12.0069 3.79477 -1.34265
12.5281 4.17712 -1.55363
12.838 2.60022 -1.28631
11.342 3.24799 -1.79255
13.1287 4.6098 -2.19596
11.4619 3.18503 -1.29094
10.9453 2.8616 -1.6826
12.5627 3.86807 -2.0336
12.5784 4.36493 -2.33114
10.927 2.7988 -1.57836
10.8857 2.67923 -1.41405
12.3622 4.12607 -1.73627
10.7995 2.83871 -1.91549
10.3462 2.40021 -2.09184
11.3503 3.17322 -2.24857
10.2459 2.19547 -1.84947
10.7797 2.46188 -1.32836
12.4981 4.14282 -2.17854
12.2496 3.79593 -1.35007
12.2877 3.90106 -1.48989
12.6063 4.39215 -2.30356
11.5708 3.31042 -1.46072
11.9021 3.75027 -2.22557
10.7056 2.68774 -2.04662
10.6232 2.60913 -2.22889
11.6763 3.42596 -1.46825
10.3993 2.41104 -1.79362
13.3335 4.43188 -1.87688
11.1781 1.88589 -1.09747
10.7418 1.20551 -2.19543
13.6828 3.28094 -1.61551
13.5029 4.46088 -1.93612
11.9702 2.93582 -1.06791
11.1577 3.13156 -1.99216
11.2464 2.27985 -1.06993
10.4974 2.1691 -2.08326
12.1739 2.36981 -1.0798
12.1213 3.90982 -2.06432
12.6299 4.33017 -1.97203
10.2444 2.08463 -1.7019
12.0798 3.85443 -1.45823
11.2313 2.69626 -1.07676
10.5791 1.58286 -1.46696
11.2242 3.13339 -2.17615
12.6487 4.3909 -2.06374
11.0886 3.07495 -2.03136
12.9274 2.60635 -1.78013
10.5053 2.29572 -1.4404
11.3588 3.33099 -2.07573
12.2808 3.86115 -1.437
12.6958 4.44595 -2.24602
12.5588 4.33389 -2.19916
12.2898 4.04178 -2.10021
12.0291 2.08945 -1.09459
12.3253 3.96179 -1.55144
12.8801 4.55069 -2.15745
11.6579 3.4332 -1.45267
12.7432 4.36923 -1.66756
12.6996 4.38037 -1.71002
12.7836 4.40652 -1.93763
12.6375 4.36465 -1.92376
10.2237 2.05444 -2.05103
10.7009 1.24423 -1.92017
10.2751 2.19275 -1.79837
11.7728 3.61118 -1.6921
11.1826 3.05606 -1.63858
11.894 3.7735 -1.90473
12.8978 4.51959 -1.81089
11.6304 3.43454 -1.5424
11.1306 2.07654 -1.08125
12.3167 2.82358 -1.11313
11.529 3.43588 -2.00184
12.6298 4.12085 -2.28523
12.4126 4.19049 -1.90143
12.8865 4.573 -2.11452
12.0464 3.74112 -1.53839
12.4832 4.21844 -1.87299
10.6939 2.33884 -1.24797
10.347 2.38766 -1.85197
10.7787 2.74893 -2.15213
10.8089 2.59241 -1.47119
12.9734 2.53329 -1.76096
10.9623 2.90485 -1.74562
10.3594 2.02438 -1.4076
11.8898 3.74826 -2.19332
11.9457 3.68799 -1.54898
11.0823 2.59384 -2.35606
11.4111 3.37485 -2.03287
13.4507 4.19806 -1.66158
11.4543 3.37479 -1.79813
13.1025 3.79752 -1.54919
13.9801 3.83206 -1.84204
10.2722 2.12103 -1.7185
10.7371 2.71057 -1.74059
10.5895 2.59097 -2.03621
10.8241 2.7399 -1.61223
10.3132 2.18793 -1.585
10.817 2.74698 -2.2779
13.2001 4.54996 -1.84127
11.1062 3.02875 -1.54298
11.2331 1.77267 -1.14103
12.3108 2.98462 -1.11548
11.8091 3.71988 -2.18548
10.636 1.548 -1.46891
12.4915 4.25104 -2.18973
12.2425 4.01163 -1.79449
10.6224 2.59235 -1.69944
11.9496 3.18607 -1.05032
11.2732 1.76254 -1.12107
12.0093 2.78046 -1.08871
10.4589 1.68588 -1.8479
12.8067 2.4704 -1.80122
11.0988 3.01651 -2.2288
11.7347 3.50308 -1.54202
11.7412 3.18228 -1.0944
13.3805 4.02869 -1.62403
12.9494 4.43427 -1.64491
10.4749 2.17664 -2.06953
10.6064 2.62692 -1.75735
10.7348 2.5679 -2.08937
10.6111 2.21005 -1.25412
12.2601 4.07065 -1.79482
10.7014 2.21652 -1.18022
10.6195 1.33316 -2.01234
11.3443 2.84888 -1.05403
10.2448 1.98605 -1.79382
11.4947 2.28818 -1.03482
12.639 4.35889 -1.73824
12.5751 4.17941 -1.60435
11.9087 3.61566 -1.52254
10.8859 2.86725 -2.1481
11.9044 3.03488 -1.06395
11.9351 2.69861 -1.0433
11.879 3.74747 -2.14117
12.5264 4.2641 -2.09644
11.3155 1.42551 -1.18409
11.1658 3.08334 -1.73087
12.6839 4.35043 -1.6491
12.0984 3.93582 -2.15556
11.9158 2.73227 -1.04698
11.9314 2.73886 -1.0328
13.1485 4.58578 -2.23619
11.2085 2.55289 -1.1057
14.0409 3.78146 -1.95367
11.6328 3.44907 -1.58997
10.2053 2.12436 -2.13255
12.7317 4.47491 -2.01562
12.4317 2.60068 -1.106
10.551 2.47623 -2.09335
10.7862 1.17224 -2.03047
13.7682 3.73099 -1.69482
11.4827 3.35132 -1.88703
12.174 3.96707 -2.13686
11.325 3.23553 -2.01011
11.7319 3.43448 -1.45021
13.2904 4.5838 -1.89687
12.3495 4.15805 -2.13993
11.4726 3.35721 -2.09541
12.504 4.13867 -1.50108
11.6924 3.08801 -1.05822
13.4081 4.36697 -1.68828
13.6586 3.34616 -1.61253
11.1865 2.69473 -1.08324
11.035 2.91534 -1.59604
11.8401 3.73068 -1.94804
11.4909 2.87912 -1.13918
10.2706 2.21918 -1.87773
13.0351 4.5892 -1.89684
10.5879 2.58441 -2.1544
10.9776 2.9169 -2.20008
10.8155 2.78983 -1.7956
10.7791 2.78336 -1.84782
12.8208 2.58215 -1.25505
10.909 2.17862 -1.11464
11.5288 3.25171 -1.45901
12.1347 3.93707 -2.04945
12.5842 4.1394 -1.5471
10.921 2.48352 -2.20145
10.9988 2.79712 -1.44213
10.7263 2.69235 -1.94699
13.246 4.41064 -1.69124
12.9482 4.35635 -2.0214
11.7853 2.18002 -1.05471
12.8391 2.62598 -1.31101
10.7578 1.30469 -1.76245
11.184 3.1481 -1.99162
12.1843 3.72498 -1.31301
11.0582 3.03433 -2.18329
10.5291 2.53943 -1.75072
11.9825 3.76736 -1.42162
10.8335 2.74243 -1.64723
10.2972 2.28375 -1.74879
11.2978 3.25897 -2.17974
12.4914 4.25272 -2.05789
10.2165 2.14093 -1.93813
12.8907 4.19803 -1.56146
11.3943 2.60126 -1.06646
10.5872 2.5856 -1.90403
11.9332 3.79263 -1.99721
10.5485 1.58688 -1.6691
13.5006 3.13354 -1.59275
13.2264 4.41403 -1.65672
12.0547 3.90543 -1.94157
10.4702 2.32196 -1.96244
12.3395 4.10233 -1.99242
10.2309 2.04276 -1.891
12.8437 4.09341 -1.54393
12.8324 4.26071 -1.55919
10.3672 1.86346 -1.62996
11.8456 3.61069 -1.57864
12.8706 4.5177 -1.87246
12.2741 4.05576 -1.86951
10.2734 1.7869 -2.10751
12.2453 4.07748 -2.00555
10.331 2.2811 -1.70287
12.859 4.44858 -2.12675
10.9906 2.46164 -1.07449
11.9765 3.73846 -2.26699
12.4673 4.23331 -2.0574
11.8835 3.70663 -1.80146
13.1641 2.70538 -1.4054
10.9108 2.81683 -1.59235
10.4429 2.29813 -1.49257
10.9613 1.71362 -1.15389
13.1664 3.84439 -1.54523
12.5727 4.16586 -1.83836
12.4856 4.29877 -2.34631
11.4164 3.17841 -1.46252
13.4128 3.45749 -1.5806
11.0381 2.94009 -1.6416
11.159 3.05899 -1.69178
10.8676 2.86926 -2.12399
12.9203 4.58282 -1.90992
10.2742 1.93228 -1.7533
10.4866 2.42633 -1.55494
10.2527 2.10776 -1.66658
10.7896 2.35342 -1.18803
13.2928 3.04764 -1.54516
10.9947 2.99109 -2.09937
11.3198 1.93338 -1.08294
10.4486 2.49063 -2.23823
11.1844 3.11679 -2.08094
11.9724 3.78668 -1.91166
10.2166 2.02615 -1.85418
11.1185 1.78293 -1.14085
11.7638 3.04831 -1.07528
12.767 3.70554 -1.48237
10.4277 2.39612 -1.70127
11.8912 1.94162 -1.11752
10.4755 1.72986 -1.49595
13.0393 3.5094 -1.54529
10.4552 2.47101 -2.0329
11.9513 3.7948 -1.94393
10.4863 2.39355 -1.58959
12.6396 3.94919 -1.48495
10.7817 2.48215 -1.3125
12.2049 3.26123 -1.45628
12.2282 3.8981 -1.5443
11.81 3.69217 -1.94267
10.5498 2.54846 -2.09831
11.9505 2.31442 -1.07833
10.3167 2.4021 -2.15458
11.6162 3.11807 -1.06309
11.9851 3.80618 -2.21016
13.1449 3.97614 -1.54795
10.9805 2.25244 -1.08082
10.7294 1.33142 -1.7674
12.0443 3.86569 -1.99212
12.8048 4.54181 -2.06119
10.2492 2.20755 -2.08889
10.7595 2.66727 -1.58594
12.4828 4.26324 -2.33375
10.9553 1.10532 -1.89981
10.448 1.64764 -1.87366
10.9398 2.84717 -1.64264
13.4058 3.27554 -1.588
12.815 4.4697 -1.75184
10.6784 2.69617 -2.40689
12.0314 3.87808 -1.814
10.3321 1.89096 -1.59052
11.0382 2.89218 -1.50145
12.9343 4.52576 -1.66464
11.8869 3.74219 -2.00232
10.9316 2.91562 -1.9897
10.7392 2.74045 -2.14168
12.2999 4.06183 -2.25117
12.1873 3.75119 -1.34204
13.4005 2.98239 -1.56805
13.7036 3.89743 -1.67315
10.245 1.88394 -2.00674
12.8064 4.42825 -1.70479
12.9529 4.38989 -1.68077
12.5489 4.10233 -1.5388
12.8172 4.43103 -1.66996
11.2039 2.63901 -1.04111
10.4426 1.8266 -1.40648
10.8344 2.83975 -1.99469
11.4592 2.16083 -1.05985
10.2173 2.11981 -1.89838
10.3896 2.30508 -2.27351
12.2943 3.89282 -1.45157
12.8457 4.4935 -1.80227
10.6445 2.29675 -1.2941
11.4062 1.7478 -1.13608
11.0274 2.39841 -2.2331
12.0164 2.77014 -1.04617
12.8106 4.44919 -1.73293
12.4299 4.01324 -1.52719
10.3417 2.44073 -2.19741
11.0338 2.99844 -2.14756
10.3731 1.89398 -1.57311
10.7192 2.57681 -1.81685
10.9545 2.55185 -1.1951
14.0458 3.80054 -1.97313
10.6787 2.59253 -1.8544
10.524 1.58859 -1.54559
12.8769 4.22418 -1.5663
13.0912 4.59567 -2.19032
11.7345 3.64029 -2.18668
10.6981 2.74936 -2.34681
11.7014 3.58994 -1.89401
11.899 2.99976 -1.02924
10.4644 2.33511 -1.50198
12.34 3.98062 -1.54914
10.3923 2.36823 -1.98648
12.5541 4.30072 -1.99228
10.7299 1.95105 -1.1593
13.4487 4.49875 -1.89129
10.2806 2.31155 -1.9883
12.3118 4.08609 -1.71001
11.8493 3.25357 -1.14516
10.5341 2.34665 -1.44352
10.2422 2.00647 -2.13023
10.8445 1.22705 -1.58583
10.4037 2.2681 -2.24913
11.702 3.38196 -1.4896
10.4648 2.54108 -2.34114
12.2227 3.87601 -1.51465
11.6489 3.4892 -1.64525
13.319 3.33435 -1.5742
11.4565 2.81833 -1.04004
10.6094 2.25534 -1.2466
10.7003 2.72159 -1.96032
12.0009 3.83984 -1.75301
12.1613 3.89236 -1.48612
11.6276 3.43829 -2.26925
13.292 4.5737 -1.86445
10.8387 2.2915 -1.10335
12.6349 4.33319 -1.65638
11 2.92651 -1.71099
13.6111 3.87717 -1.65318
10.3784 2.32626 -2.08866
12.5658 4.09357 -1.87339
10.542 2.58786 -2.35381
12.5311 3.83997 -2.2716
11.6339 3.38641 -1.50157
11.8171 2.76517 -1.05262
12.6578 4.06079 -1.5115
10.6968 2.62238 -2.08895
12.198 2.89157 -1.07536
10.8492 2.73911 -1.54382
10.999 2.99194 -2.15147
12.6139 4.38501 -1.84371
11.6281 1.78351 -1.10946
12.5108 4.19864 -1.63202
12.4397 4.11981 -1.922
11.5034 3.38412 -1.79926
10.6043 2.24509 -1.21106
10.9872 2.1051 -1.11168
12.1012 3.89517 -1.79593
12.1637 3.98749 -1.89745
11.0147 2.75824 -1.43237
12.2388 4.06787 -1.98494
10.2649 1.90823 -1.79708
11.4792 2.55725 -1.02997
10.8872 2.85037 -1.74477
11.2119 2.20334 -1.06227
10.6972 1.53036 -1.43723
12.8919 4.54565 -1.89352
10.4675 1.60049 -1.59887
12.7775 4.52161 -2.14606
13.2776 4.55875 -1.87452
10.7196 2.60883 -1.61633
13.6286 4.36011 -2.00461
12.4102 3.02267 -1.1219
12.5651 4.04291 -1.49998
10.6871 2.39072 -1.34523
10.319 2.3847 -2.11602
13.0501 2.63519 -1.37342
10.6891 2.65817 -1.995
12.5969 4.34363 -2.08941
11.963 3.79517 -1.42408
11.7269 3.60849 -2.16805
12.1542 3.85764 -1.502
11.7929 3.09991 -1.16457
13.3193 3.29596 -1.53168
11.8703 2.07855 -1.05962
13.6165 4.33228 -2.10536
11.658 3.53458 -1.79847
11.0891 1.44983 -1.25371
10.3926 2.30225 -1.59583
12.9745 4.45557 -1.61725
12.7942 4.31113 -1.58459
11.293 3.19638 -1.7912
10.3968 1.6011 -2.03954
11.5521 3.43851 -1.74899
13.4443 4.53894 -2.19369
11.6156 1.77103 -1.11739
12.3474 4.07825 -1.65529
11.5511 2.45557 -1.02015
10.6285 2.73404 -2.37632
11.702 3.4024 -1.46413
11.9568 3.75729 -1.7327
10.4471 1.54227 -1.99673
12.0499 3.74252 -1.50204
13.2313 4.62192 -2.08909
12.0731 3.86856 -1.92559
11.7866 3.6579 -2.04904
13.0368 3.67279 -1.51578
12.8697 4.5015 -2.10937
13.0196 4.02097 -1.54555
11.5921 3.49133 -2.19352
12.9507 2.68219 -1.33867
13.2217 4.50049 -1.66555
11.466 3.32385 -1.67907
12.0807 3.49738 -1.27674
10.3253 1.90939 -1.62357
10.5017 2.49536 -1.7798
12.7093 4.42914 -1.75652
13.0965 4.2995 -1.60249
11.8514 2.44247 -1.05635
10.7049 2.18884 -1.15292
12.6602 2.44403 -1.16578
11.5126 3.40656 -1.6294
13.2847 4.44974 -1.83204
12.9902 4.0499 -1.54667
11.4817 3.3078 -1.58268
13.663 4.33459 -2.21268
10.9833 2.522 -1.11026
12.3969 4.1813 -2.10214
12.5338 4.19992 -2.07336
10.3326 1.94022 -1.58309
10.3372 1.89615 -1.54202
10.4545 1.6882 -1.55967
12.9501 4.29688 -1.96047
11.3369 3.24698 -2.04934
11.9554 3.80396 -2.0505
10.2251 2.07529 -1.85968
11.0857 2.97766 -1.64189
12.7143 4.42081 -1.79481
11.652 3.07257 -1.17488
13.5557 4.21384 -1.74143
11.8426 1.83429 -1.09927
10.5651 2.58899 -1.87505
10.8291 2.62576 -1.40521
11.5145 3.04514 -1.17389
11.577 3.46255 -2.18083
10.3489 2.26517 -2.16857
10.9364 2.40457 -1.09538
12.0908 3.85233 -1.64321
10.7286 2.74008 -2.25955
11.4377 3.33588 -1.75028
11.753 3.14203 -1.04996
10.7355 2.60455 -1.48833
11.0752 1.82587 -1.14285
11.9067 3.34341 -1.14308
11.4558 2.9375 -1.05717
10.9022 2.87897 -1.79026
11.2535 3.22845 -2.10872
13.9924 3.79404 -1.84385
11.2992 3.27176 -2.05792
11.3523 3.13998 -1.4869
12.3384 4.0639 -1.68622
11.5894 3.49527 -1.89904
10.6437 2.68674 -2.39365
12.0993 3.8981 -1.84747
10.5949 2.38409 -1.8575
11.541 2.2283 -1.03859
10.7801 2.75528 -1.84663
12.7306 4.48184 -2.14494
11.203 2.64316 -1.15831
12.438 4.2879 -2.35218
12.1442 2.77371 -1.06928
10.2753 2.07129 -1.66866
10.4431 2.1897 -1.39637
12.0795 3.90298 -2.09299
10.7014 1.25336 -2.02035
13.1973 4.44955 -1.7274
12.6903 4.38565 -1.85627
11.6772 3.56802 -1.87101
10.7423 2.70419 -2.036
10.4014 1.78522 -1.85493
12.332 3.93912 -1.49677
13.1356 4.59067 -1.84208
12.0364 2.84491 -1.04461
11.2163 3.19403 -2.12592
10.7376 2.44946 -1.35121
11.8944 3.75052 -1.88506
10.946 2.52823 -1.15924
11.0549 2.05023 -1.11893
13.5936 3.63229 -1.6305
10.6867 2.6665 -2.37485
12.1538 3.88803 -1.55829
13.7517 4.22867 -1.98373
10.3686 2.34122 -1.67672
11.9258 3.74405 -1.812
10.8347 2.77679 -1.55603
12.4471 4.03104 -1.51375
10.3538 2.24655 -1.51774
13.5344 3.09125 -1.6011
13.2409 4.56052 -1.88622
11.6436 3.50058 -1.74609
11.746 3.53049 -1.56542
11.1249 3.06491 -1.78888
13.1455 4.44321 -1.79937
13.3697 3.0856 -1.60839
12.0321 3.40045 -1.23848
12.8412 4.53568 -2.10158
10.5925 1.35587 -1.94371
11.3457 3.09128 -1.45352
13.1739 4.45511 -1.69733
12.6284 4.27087 -2.30138
12.8549 4.05206 -1.53859
11.5537 1.86215 -1.11496
10.382 1.95511 -1.47945
12.3241 3.02734 -1.12135
11.3825 3.3038 -2.05469
10.7795 2.52805 -1.35772
11.817 3.62149 -1.6281
11.6832 2.53391 -1.01712
11.8645 3.71417 -1.92941
11.5229 3.40631 -1.99882
12.3544 4.13693 -1.83033
10.2891 2.3356 -1.90128
11.7758 3.6579 -1.99212
12.3921 4.07916 -1.55535
12.2269 4.00568 -1.99753
11.7995 3.58768 -1.54663
10.9975 2.95169 -1.84516
11.697 2.59415 -1.03285
12.9218 2.57025 -1.25023
10.9316 2.59982 -1.28983
12.1423 3.84396 -1.5551
11.7498 3.64084 -2.03942
13.0431 2.73184 -1.40634
13.2752 4.25525 -1.63972
12.4898 4.19867 -2.16554
11.2083 3.12973 -1.81213
10.4907 2.53152 -2.20825
10.6947 1.49753 -1.44555
12.2304 4.01889 -2.07658
10.403 2.31882 -2.05893
10.6023 1.48245 -1.87869
12.1476 2.9516 -1.08056
10.8065 2.70004 -1.58896
10.8972 2.65436 -1.42483
11.3567 2.25003 -1.04899
12.3302 4.035 -1.59895
12.7329 4.48651 -2.04112
13.0876 4.34583 -1.61272
11.3817 2.84064 -1.09848
11.8912 3.74466 -1.93903
10.2902 1.78088 -1.8787
12.3079 3.01627 -1.12251
10.847 2.79276 -2.24352
11.7995 3.5787 -1.50926
11.106 3.07706 -1.81181
10.357 2.48004 -2.2071
10.5002 2.48773 -1.70221
10.315 2.33957 -1.7905
10.7091 1.34814 -1.84182
11.4047 3.31342 -1.82783
10.89 2.20157 -1.12107
12.5584 4.30759 -1.81511
10.8305 2.71509 -1.60683
11.5371 3.00699 -1.09354
12.9312 4.56351 -2.19839
12.6544 4.26706 -1.80922
13.318 4.55655 -2.12628
11.0266 2.77689 -1.35531
11.9387 3.35184 -1.11045
10.7805 1.44455 -1.41556
13.058 4.40466 -1.6122
13.0448 4.62485 -2.0059
10.5383 2.48804 -1.84221
13.2506 4.33652 -1.65359
10.4419 2.33755 -1.54556
11.5106 2.32849 -1.03859
10.4599 2.39227 -1.89529
13.7436 4.22849 -2.23516
10.7302 2.66824 -1.98273
12.1565 3.98245 -1.84902
10.9074 2.44437 -1.1071
10.8974 2.6972 -1.44812
11.2509 3.20297 -1.99738
12.3825 4.035 -1.50018
10.439 1.77377 -1.50756
11.9749 3.67709 -1.55672
11.2477 2.98447 -1.39376
12.025 3.84598 -2.05038
12.3592 2.19565 -1.12294
10.4117 1.57599 -2.01832
12.7144 4.48898 -2.28531
11.3075 2.74768 -1.14391
10.4705 2.50955 -2.26696
11.8911 3.77579 -2.09185
10.5526 2.44766 -1.53947
10.5419 2.54868 -2.24649
10.9816 2.90591 -1.7376
10.2861 2.03793 -1.64549
10.6836 1.99176 -1.15679
12.6871 4.4122 -2.04063
12.1293 3.89719 -1.39417
10.797 2.57718 -1.91305
12.7422 4.53409 -2.22666
12.112 3.9476 -2.18774
13.6842 4.14413 -1.78575
11.5021 3.17868 -1.34879
12.8443 4.5697 -2.03472
10.9134 2.8934 -1.92882
11.9469 2.98059 -1.06098
11.5195 3.36136 -1.6772
13.1174 3.49704 -1.54601
10.4918 2.19919 -1.39354
13.0783 2.70157 -1.49618
10.9476 2.93652 -1.99721
12.6313 4.33652 -1.85277
11.4838 3.11209 -1.43748
11.9269 2.84573 -1.04934
11.2003 3.03571 -1.47046
13.1723 2.81427 -1.46079
12.183 3.19931 -1.11162
11.6197 3.51694 -2.00602
13.0277 4.44943 -1.77027
10.3839 2.3674 -1.72741
12.6275 4.24551 -1.59676
11.9028 3.64627 -1.49914
12.5321 4.26807 -2.13953
11.3588 3.22122 -1.61273
12.2457 2.02435 -1.11879
10.7966 2.7915 -1.89691
11.3744 3.20035 -1.54808
12.4077 4.11359 -1.63906
11.4381 3.19604 -1.49222
11.8254 3.68881 -1.85278
10.7625 2.75189 -1.82629
12.2765 3.97427 -1.55482
10.4329 1.60153 -1.98153
10.3246 2.27579 -2.1139
13.8068 4.17117 -2.24888
10.681 2.69363 -2.14401
11.5973 3.50171 -2.09985
13.0515 4.61133 -1.98707
12.0271 3.85831 -1.95342
11.9678 3.72665 -1.36025
10.3542 2.19751 -1.49507
10.6568 2.67145 -2.0864
11.319 3.28867 -1.87247
12.6745 4.28616 -1.60428
11.009 2.48859 -1.08729
11.5654 2.27631 -1.04176
10.5324 1.58926 -1.87893
10.4044 2.42941 -1.96423
12.8958 4.3443 -1.59079
10.5944 2.60538 -2.20519
12.7003 4.47733 -2.2475
10.8219 2.77011 -2.16547
11.7727 3.65445 -2.1412
11.9324 3.79095 -1.85933
10.5582 2.57172 -2.11963
10.2919 1.89581 -1.7397
12.7786 3.35355 -1.35313
13.0505 4.49722 -1.64135
11.1858 3.1123 -1.93037
10.6843 2.31552 -1.27137
10.448 1.53806 -2.03564
10.6221 2.54349 -1.64989
10.5379 2.63562 -2.39758
10.498 2.54922 -2.39384
11.7884 3.61313 -1.74131
11.1173 2.84372 -1.44185
10.7252 2.62936 -1.88485
12.4608 3.91699 -1.47929
10.5514 2.55624 -2.3386
11.4342 3.32657 -2.00858
11.4638 3.28775 -1.55356
12.6644 4.3934 -1.98
10.3514 2.04453 -1.53405
12.4441 4.12497 -1.60614
12.5704 4.26575 -1.67886
12.7133 4.49875 -2.13001
13.1522 4.47791 -1.81782
11.6995 3.44156 -1.53228
11.4081 3.08353 -1.36318
10.4726 2.4404 -2.25536
11.8898 3.71918 -1.97345
11.2766 2.98019 -1.42979
13.1219 4.12207 -1.56865
12.3516 2.314 -1.07807
10.585 2.55463 -1.68515
11.2317 3.14932 -1.79579
10.2881 2.2424 -1.65107
12.4494 4.07373 -1.55922
11.7267 3.63278 -1.89823
11.4149 2.29172 -1.06016
10.2287 2.16956 -1.96318
12.5078 4.10889 -2.21206
12.2164 4.00635 -2.03572
12.3456 4.0477 -1.98998
10.8131 2.06296 -1.12832
10.8787 2.84824 -1.80153
11.5891 3.49277 -1.84587
12.9048 4.31107 -1.92635
13.6413 4.04663 -1.91821
11.911 3.3042 -1.09256
12.0713 3.85214 -1.9095
10.2324 2.08972 -1.89936
11.1641 2.23636 -1.03853
10.8569 2.80121 -1.7463
10.2776 2.23691 -1.84796
11.1261 1.63721 -1.14781
10.2946 2.23746 -1.69882
10.868 1.72629 -1.15826
12.2843 4.08157 -1.81152
11.0598 3.02069 -1.75632
10.6852 2.29535 -1.2424
11.3016 2.23749 -1.07287
13.8365 4.12515 -2.02388
12.1218 3.93784 -1.41042
11.8976 3.77454 -2.20364
10.7383 1.28839 -1.8175
11.586 2.68787 -1.03673
10.4426 2.1398 -1.39016
10.9532 1.84183 -1.12615
10.5871 2.48456 -2.04979
10.3983 1.93805 -1.41183
12.6503 2.38409 -1.1814
11.2439 1.90417 -1.03921
12.0822 3.83115 -1.60319
11.2985 2.30478 -1.03844
10.7374 2.39093 -1.25322
11.2428 2.64645 -1.09603
13.0014 4.45844 -1.74537
10.4274 2.0976 -1.41286
10.893 1.31879 -1.45708
10.4837 2.38803 -1.51104
12.6845 4.22626 -1.56392
10.6276 2.61444 -1.72838
10.4632 2.48505 -2.11576
13.6139 4.37341 -1.97445
12.6487 4.27591 -1.59188
10.7314 2.5751 -1.45463
10.8652 2.82474 -1.7366
11.5568 3.37701 -1.49823
10.8735 2.81638 -1.79079
10.3736 1.63953 -2.05907
12.4041 3.95679 -1.47635
11.9491 3.7851 -1.69848
11.0029 2.44104 -1.06712
12.6278 4.36905 -2.12963
13.1103 4.41232 -1.72029
10.4678 2.45313 -1.68011
10.2849 2.00876 -1.67519
11.3224 2.76761 -1.07788
13.2018 4.63416 -2.02464
13.6912 4.28766 -2.12892
13.2454 4.60114 -2.18921
10.3896 1.69199 -1.86899
11.3534 3.24133 -2.23223
12.1038 3.87952 -1.66025
11.2223 3.13486 -2.00982
12.394 4.20367 -2.24339
12.1426 3.93936 -1.74424
10.687 2.48901 -1.44948
10.5971 2.49796 -1.5941
12.0074 3.6955 -1.50316
12.5476 4.33218 -2.39839
12.5767 3.94806 -1.50125
12.8627 4.35721 -1.59941
10.4996 2.44415 -1.64647
12.1408 3.8869 -1.64519
13.463 4.44647 -2.18189
11.0031 2.49158 -1.23294
11.7176 2.79391 -1.03455
11.1324 1.28415 -1.38237
12.9483 4.46072 -1.72469
11.1622 3.09293 -1.69066
10.7126 2.75516 -2.09237
11.5581 3.20636 -1.34047
11.4568 3.3934 -1.9959
10.8723 2.80902 -1.64772
11.2836 2.74997 -1.09221
11.551 3.44437 -1.60677
11.8405 2.83679 -1.03617
11.3022 3.18326 -1.70136
11.9406 2.12158 -1.11159
11.9242 3.70657 -1.62904
11.6563 1.66888 -1.1408
11.3405 2.49719 -1.03613
10.5437 2.39642 -1.88708
10.5547 2.55869 -2.06955
10.3909 2.41751 -2.151
12.3507 2.80029 -1.11865
10.5459 2.23792 -1.35362
11.6201 3.39929 -1.55859
13.365 4.45529 -1.70999
11.2957 3.24817 -2.14909
10.7372 1.56012 -2.11078
10.3835 2.50031 -2.29558
11.595 3.18558 -1.40296
11.857 3.22531 -1.18262
10.8255 2.80658 -1.82864
10.5786 2.29114 -1.39278
10.4092 2.42789 -2.17991
11.3422 3.29297 -1.84389
10.7407 2.7081 -2.10665
10.335 2.28091 -2.14507
10.6763 2.54257 -2.09554
12.4416 4.12534 -1.86559
12.1788 4.00314 -2.08989
11.4279 3.1236 -1.30249
12.9241 3.84171 -1.50923
10.9983 2.85254 -1.49158
10.5418 1.42172 -2.01841
12.461 4.24622 -2.29685
12.0389 3.48563 -1.23083
12.228 2.53482 -1.09497
10.8095 2.2854 -1.13313
12.8487 4.49277 -2.14507
13.114 3.73917 -1.54176
12.2731 4.05542 -1.76777
12.8029 2.48917 -1.20919
12.9894 4.59491 -2.00077
13.0709 4.42947 -1.60986
11.0348 3.00662 -1.89502
12.5918 2.58795 -1.14256
11.4933 3.13171 -1.29166
11.4923 3.4007 -1.84818
11.1186 2.6196 -1.12731
12.3354 4.05716 -2.18906
11.1706 2.48969 -1.03733
11.0072 2.98218 -2.19098
13.246 3.48248 -1.53104
11.6893 3.44693 -1.49146
12.2787 4.03928 -2.20137
12.5428 4.28586 -1.7356
10.4321 1.9523 -1.45367
11.1584 1.58746 -1.1538
13.476 4.01233 -1.60615
11.3295 2.20941 -1.0667
12.3729 4.00974 -2.20277
10.395 1.94 -1.4439
10.6293 1.56812 -1.47756
12.4453 4.1459 -1.8771
11.4998 2.9794 -1.10089
11.7958 3.65128 -2.18708
10.2342 1.98453 -2.09581
11.4131 3.34659 -2.02536
11.2795 1.36115 -1.40096
13.2227 3.17505 -1.54189
10.9924 2.91266 -2.22185
11.4248 3.28552 -1.70215
12.1374 3.94678 -2.09473
13.2537 4.30283 -1.63699
12.9814 3.96497 -1.51902
12.5829 4.26389 -2.0212
12.959 4.298 -2.25553
11.1584 2.3544 -1.07322
11.3829 3.2182 -1.58337
11.1918 3.15228 -2.09908
13.2231 3.60266 -1.53809
10.5089 2.24094 -1.39477
12.7231 4.30768 -1.84583
10.7366 2.65814 -1.68463
11.7885 3.6615 -2.09605
13.5838 3.6174 -1.60268
12.0755 3.88007 -1.90633
12.9777 4.20432 -1.59428
10.9723 2.87192 -1.61383
10.3651 1.80386 -1.54489
13.025 4.44675 -1.69117
13.1863 4.58936 -1.87423
10.8048 2.72034 -1.55261
11.4367 2.85202 -1.04468
12.1233 3.95444 -1.94329
10.6963 2.59799 -1.87845
11.805 3.50342 -1.49493
13.1045 4.59476 -1.89731
10.7548 2.78494 -2.14049
13.1881 3.66586 -1.54357
10.9564 2.04868 -1.09711
10.6885 2.74896 -2.2959
12.1345 3.59927 -1.46562
12.6462 4.44519 -2.29801
12.1844 3.97769 -1.80468
12.1998 3.93625 -1.60783
13.3337 4.39572 -1.85232
10.5003 2.18158 -2.14933
11.9483 3.79562 -2.18629
10.7399 2.75613 -2.18281
11.8238 3.66873 -1.82117
13.365 4.54111 -2.02506
11.7753 1.82352 -1.11637
12.8555 2.61041 -1.33413
13.001 4.31458 -1.59484
11.4565 3.24417 -1.45071
13.3431 3.59732 -1.56501
10.6362 2.26596 -1.24307
11.5852 3.35849 -1.52431
10.7915 2.77457 -2.15459
10.6107 2.62338 -1.86963
11.5178 3.37875 -1.70121
10.2175 2.1019 -1.87936
11.9441 3.43607 -1.15852
10.3605 2.25327 -2.19089
11.2057 1.93869 -1.1115
13.3104 4.41614 -1.81205
10.6575 2.52802 -1.46
13.5702 4.43887 -2.00761
12.3575 4.1553 -2.33454
10.3884 2.32739 -1.61156
11.4731 3.19339 -1.44812
12.785 4.46631 -1.83058
11.5354 2.62476 -1.04871
10.5033 2.43851 -1.59718
12.3405 3.05969 -1.20213
11.4876 3.34616 -1.69891
12.2421 4.03653 -2.09816
11.9723 3.65582 -1.56474
11.0023 2.95422 -2.17252
12.1556 4.00681 -2.05141
12.3049 2.19092 -1.10114
11.4716 3.35059 -1.86269
12.9859 4.5097 -1.77618
10.7355 2.7338 -2.00823
12.0429 3.45459 -1.21165
13.0381 4.3317 -1.60838
12.5899 4.31772 -2.17455
11.4153 3.23672 -1.51389
13.1312 4.23346 -1.60965
10.5225 1.44556 -2.0218
11.3267 3.15503 -1.53878
10.4594 2.3757 -1.60142
11.9836 3.80682 -1.98677
10.6981 2.70111 -1.94003
10.5437 2.49265 -1.63779
12.3392 2.55884 -1.0865
12.274 3.086 -1.11442
12.1464 3.99197 -2.14686
12.548 4.23419 -2.04518
10.1658 2.04019 -2.0468
12.5313 4.16156 -2.06466
12.8297 4.47742 -2.09476
11.5254 2.82831 -1.03639
10.7366 2.34619 -1.19256
12.978 4.44913 -1.64533
11.5368 3.35669 -1.54522
12.5025 2.80658 -1.13355
10.5265 1.67633 -1.4883
12.2334 3.99826 -2.05302
11.6691 3.16611 -1.09842
10.7399 1.33777 -1.5631
10.2648 2.3262 -2.04107
14.0118 3.71613 -1.82644
12.1914 3.98618 -2.14102
12.9515 4.20291 -1.55604
10.6331 2.69049 -2.44838
12.8978 4.54706 -1.94447
10.5754 1.42325 -1.99959
11.6172 2.85828 -1.02509
10.508 2.54599 -1.92815
13.0608 2.7345 -1.44879
10.2302 2.14514 -2.18806
12.7122 4.52603 -2.13868
11.8908 3.62677 -1.46501
12.4997 3.94476 -1.96324
10.9503 2.48892 -1.14417
10.4721 1.65579 -1.54845
12.7588 4.4993 -2.08947
13.0053 3.74347 -1.52323
10.804 2.75803 -1.74595
10.7983 2.34457 -1.14033
10.8278 2.71243 -1.48416
11.4127 2.9982 -1.42735
12.5416 4.26498 -1.89037
10.2191 1.90881 -1.97306
12.6353 4.33835 -1.69637
12.8234 4.2771 -1.56428
12.6437 4.28995 -1.8335
12.226 3.95612 -1.59558
12.3226 4.15076 -2.21329
11.4469 3.38989 -2.18671
12.6331 3.98611 -1.49541
10.94 2.35181 -1.09367
10.7833 2.79837 -2.19777
10.6953 2.67615 -1.74747
12.8317 4.46838 -1.78226
13.1052 4.43298 -1.72652
11.3338 3.26266 -2.14721
10.7131 2.33951 -1.20786
10.198 2.05255 -2.08507
10.9482 2.64655 -1.43655
12.1047 2.89139 -1.06659
11.999 3.83841 -2.04636
11.5929 2.01926 -1.09408
10.5551 2.54483 -1.8511
10.2031 1.94974 -1.99327
12.5968 4.26816 -2.259
12.5975 4.0488 -1.50622
13.9689 3.7894 -1.80087
12.7056 4.41672 -2.0873
12.5683 4.31796 -1.8431
11.8772 3.55023 -1.41158
11.7294 3.09933 -1.05502
11.1491 1.84308 -1.12015
12.6201 4.12222 -1.49756
11.4517 3.30759 -1.63992
11.0271 2.99951 -1.9449
11.235 3.19614 -2.14825
13.1981 3.98611 -1.5648
12.5639 4.26202 -1.9216
12.2956 4.11942 -1.86698
11.2536 3.13391 -1.55449
11.4805 3.28915 -1.50556
10.5756 2.24899 -1.38453
10.6409 2.39438 -1.39097
11.7959 3.45752 -1.45336
11.3504 2.78278 -1.05979
10.5961 2.59708 -1.73891
11.6445 3.04037 -1.10307
11.9483 3.24887 -1.08858
10.902 1.9408 -1.12305
11.144 2.94247 -1.4583
11.7376 3.45499 -1.49775
12.4694 2.28342 -1.13233
10.967 2.97351 -2.07214
11.0491 3.02859 -1.90367
10.655 2.46533 -2.35145
10.5379 1.53134 -1.58342
12.0881 3.90808 -2.1472
11.4786 3.24286 -1.4965
13.7315 4.20337 -1.92355
12.474 3.8671 -2.16491
10.2834 2.1955 -1.64669
12.0647 3.84796 -1.88248
11.089 2.58786 -1.1889
12.1465 2.91632 -1.08464
13.4459 3.38519 -1.58998
12.3616 4.10757 -1.96523
11.0113 2.21494 -1.0794
12.1443 3.69479 -1.32524
12.4752 2.87314 -1.1295
13.3235 3.17563 -1.60544
10.2455 2.29022 -1.94158
13.4817 4.4538 -1.90409
11.2441 3.11475 -1.63074
10.4704 1.63574 -1.57275
12.9068 4.41345 -2.0368
11.5305 3.44254 -1.90139
12.6902 4.25366 -1.63007
13.0022 4.13596 -1.59327
11.0726 2.49112 -1.08659
11.0314 2.18515 -1.07272
13.4603 3.97278 -1.6428
12.6148 4.15353 -1.51497
13.2024 4.57028 -1.85548
10.3988 2.3941 -1.69398
10.9612 2.87427 -1.66462
11.1522 1.96298 -1.11983
10.9211 2.88943 -1.80524
11.6312 1.86469 -1.08075
12.3018 4.03125 -1.64476
10.5124 2.52454 -1.77576
12.0908 3.93613 -1.99657
13.0748 4.62979 -2.05571
10.9271 2.59796 -1.38081
11.3579 1.70575 -1.10205
11.2061 3.18527 -2.18654
11.5216 1.65768 -1.15197
12.5507 4.38034 -2.3704
12.0007 3.8418 -2.19222
12.3444 2.80664 -1.06852
10.9933 1.57275 -1.17746
11.765 2.75385 -1.03528
12.5497 4.19241 -1.60091
10.5386 2.40402 -1.48869
11.4131 2.47018 -1.05695
12.4581 4.23856 -2.09231
13.7959 3.42407 -1.67855
12.235 3.74313 -1.30138
10.7281 1.22244 -2.01769
13.1473 4.58911 -1.98932
12.6292 4.20526 -1.58519
12.1809 3.65656 -1.34394
11.1829 3.11356 -2.19189
12.6527 4.24963 -1.82931
11.5608 3.48157 -1.99132
12.9213 3.84222 -1.53115
12.4476 4.09586 -1.59069
12.9878 4.58578 -2.0443
13.951 3.98972 -2.23511
13.7005 4.24478 -2.13464
13.6729 4.302 -2.08971
13.9201 3.98325 -2.15874
13.879 4.07114 -2.10015
13.6066 4.37457 -1.95727
13.6012 3.86829 -1.66962
13.7844 4.16672 -1.92086
14.0086 3.81174 -1.89148
13.7354 4.12897 -1.79514
13.7243 4.10648 -1.76174
13.973 3.7981 -1.81345
13.7133 4.07471 -1.72543
13.9776 3.74222 -1.79941
13.6867 4.05161 -1.70911
13.9863 3.68442 -1.79361
13.6811 4.12485 -1.67418
13.9808 3.66608 -1.7742
13.9803 3.63354 -1.75981
11.3476 3.27945 -2.10847
