6.62808 -1.06537 -2.06273
8.29425 0.693726 -2.17061
7.17564 -0.710724 -1.33656
8.54951 0.832306 -2.09825
6.85573 -0.601654 -2.47572
8.214 0.579956 -1.89307
8.48933 0.780518 -1.49578
6.97908 -0.531342 -2.14265
9.36028 1.50159 -2.19434
9.64407 1.28732 -1.84636
9.43954 1.5238 -1.91172
8.24478 0.610199 -1.98932
7.66147 -0.894989 -1.61092
8.95238 1.13486 -1.84556
8.78474 -1.0426 -1.55905
8.5493 0.827362 -1.75468
7.19756 -0.384308 -2.07819
7.60582 0.0370789 -1.8454
9.13013 -0.791534 -1.77273
7.97734 0.27359 -2.31446
8.81186 1.12802 -1.98988
8.2438 0.633179 -2.19706
8.87135 1.2374 -2.41144
9.04019 1.31924 -2.1644
6.97156 -0.53186 -2.09145
6.7968 -1.01968 -1.61539
7.0043 -0.829285 -1.37016
8.15797 0.501617 -2.27686
9.02434 1.32144 -2.43454
7.28485 -0.615387 -1.28601
7.85924 -0.197113 -1.5265
8.29396 0.561615 -2.28886
8.55128 0.764038 -1.56548
7.88693 -0.112885 -1.52855
9.7195 0.191162 -1.67317
8.43224 0.772644 -1.46657
7.23183 -0.313263 -1.80077
7.03664 -0.470154 -1.95139
8.66266 0.948578 -1.73764
6.79633 -1.30954 -1.68244
7.28194 -1.94501 -1.87305
8.59126 0.711823 -1.49584
6.6814 -1.34723 -1.89004
8.20465 0.552765 -2.13577
6.92731 -0.760834 -1.53811
8.04733 0.407257 -1.79038
6.85805 -1.48663 -1.8298
8.75417 0.890411 -1.59581
9.08604 1.36163 -2.32771
9.15413 1.36749 -1.89493
9.29327 1.48724 -2.24706
8.57211 0.771332 -1.46675
6.76534 -1.44559 -2.18919
6.81912 -0.667084 -1.99909
7.58098 -0.0389709 -1.67652
7.20901 -0.414917 -1.59516
9.59157 -0.252686 -1.5924
7.03114 -0.612854 -1.5515
9.51695 1.51465 -2.12937
9.64192 1.50357 -1.95497
7.70695 0.113312 -2.04222
8.80055 1.18338 -2.35913
8.22141 -1.44031 -1.76044
7.10164 -0.393768 -2.34385
7.50676 -0.757538 -1.43856
7.83751 -0.0573425 -1.50588
7.29031 -0.301239 -1.70478
9.20081 1.41693 -1.98771
8.61803 0.929291 -2.01191
9.57001 1.4939 -2.11441
6.88387 -1.01675 -1.46532
7.10016 -0.548157 -1.93881
9.2271 -0.648438 -1.97638
8.97835 1.21918 -2.00507
9.80374 1.06006 -1.67881
7.97601 0.317413 -1.77618
9.14412 -0.801178 -1.74969
7.86818 -0.000701904 -1.39486
7.02609 -0.551422 -1.69965
7.67734 0.0929871 -1.7967
6.93399 -0.548126 -2.3386
6.75288 -0.807343 -1.75215
7.44083 -1.24628 -1.20446
7.9342 0.360321 -2.18554
8.86992 1.16913 -2.00292
7.15004 -0.625641 -1.42894
6.62985 -1.01065 -1.94233
7.24831 -0.365051 -2.28653
7.23109 -0.376343 -2.12043
9.82292 0.568878 -1.6358
8.98566 1.19946 -1.69892
7.99632 0.343201 -1.80009
7.9807 0.296661 -1.7436
8.90749 1.19962 -2.2431
9.84309 -0.0265503 -1.63007
10.3786 0.50116 -1.81332
8.54979 -1.25815 -1.69165
9.32964 1.48413 -1.95908
8.69757 0.998657 -1.79248
8.21327 0.582947 -1.94968
7.79636 0.148468 -1.69376
8.95917 1.19244 -1.90339
7.72542 -0.190674 -2.3941
8.97847 1.01025 -1.53556
7.24492 -0.30954 -1.74686
7.34923 -0.395111 -1.52523
7.41109 -0.116974 -2.10997
9.65915 1.53757 -2.09391
7.93524 0.236755 -1.60118
7.9837 -0.00363159 -1.29535
7.44189 -0.151184 -2.09997
9.13554 -0.821747 -1.99073
9.39752 1.26648 -2.27255
7.50642 -0.0440674 -2.03631
7.85481 0.0539246 -1.57513
8.87726 1.09961 -1.69604
6.83722 -1.50705 -2.06552
6.71863 -0.700928 -2.17801
7.88568 0.293396 -2.20005
6.98111 -0.534607 -1.81339
8.86935 1.17825 -2.13852
8.45828 0.61792 -2.36662
8.03049 0.423035 -2.20708
8.04311 0.408142 -1.9311
7.52618 -0.0561829 -2.0542
8.1532 0.526459 -1.81292
8.60258 0.813202 -1.68714
7.16318 -0.375061 -1.71067
9.33475 1.52994 -2.00556
8.94321 0.761993 -2.18031
8.60674 -0.922668 -1.75583
8.79866 -1.01871 -1.60109
9.51778 1.28806 -1.65166
9.80008 0.0934753 -1.69824
8.03961 0.389313 -2.24658
9.34477 1.54346 -2.03686
8.8257 1.09906 -1.993
8.90761 1.11563 -2.0999
9.27374 1.13242 -1.60059
7.94437 0.211487 -1.59005
9.83192 1.47211 -2.05791
8.35045 0.60614 -1.63558
7.78743 -1.04593 -1.48014
8.84337 1.22525 -2.41525
7.76151 -1.12073 -1.16583
8.0549 0.25351 -1.57945
9.05772 1.0809 -1.56096
9.08049 1.03564 -1.5629
9.5573 -0.28894 -1.59719
9.61948 -0.240784 -1.62679
7.14198 -0.419495 -1.65211
8.01463 0.0434875 -1.38132
7.77434 -0.290253 -1.18152
8.57933 0.690826 -1.45543
6.63412 -0.998627 -1.98154
6.88033 -0.92038 -2.19766
6.62007 -1.11572 -2.06234
8.93459 0.768982 -2.14679
9.77742 1.4819 -1.95821
7.20319 -0.598297 -1.4471
6.77852 -0.671967 -2.2076
7.96416 0.380554 -2.15698
8.44353 0.394897 -1.29374
7.30769 -0.223236 -1.85397
8.78543 1.06696 -2.09016
7.56012 -0.76712 -1.50208
6.94554 -0.970734 -1.4789
7.83992 0.137054 -1.61145
7.31549 -0.214996 -1.92403
7.22252 -1.07349 -1.23649
7.29204 -0.252808 -1.94808
8.54796 0.918976 -1.87691
7.79277 -0.00088501 -1.53529
9.58484 1.27521 -1.73463
9.45576 1.50626 -2.28391
8.95967 1.23642 -1.9496
7.99098 0.340973 -2.10118
6.87518 -0.603546 -2.14717
9.13225 1.41324 -2.18626
9.54231 1.52643 -1.93839
7.04352 -0.543396 -1.64312
7.33951 -0.611694 -1.28436
7.8018 -0.242279 -1.17588
9.34201 1.49371 -2.0968
9.21722 1.38962 -2.3385
7.74461 0.0204468 -1.51541
7.02994 -0.600189 -1.69577
7.42281 -0.804474 -1.15958
8.43892 0.739807 -1.84241
6.70323 -0.730621 -2.13453
9.85574 0.0312805 -1.63
8.55901 0.887115 -2.09289
8.75224 1.01331 -2.06129
7.00285 -0.571869 -1.66291
7.38383 -0.452698 -1.48582
7.36058 -0.457642 -2.33435
7.8855 0.265625 -1.92976
8.84276 1.12747 -2.04377
8.49849 0.785797 -1.99913
9.26663 -0.455505 -1.37539
8.29515 0.644165 -2.09439
6.93257 -0.575073 -1.82111
9.48798 1.52954 -2.09126
10.4133 0.743927 -2.24656
7.75352 -1.67776 -1.32057
9.28551 1.49295 -2.15222
7.43666 -0.233978 -1.59043
9.89389 1.38718 -2.21848
9.61552 0.582886 -1.61333
8.64708 -0.905548 -1.84447
8.46683 -1.32996 -1.80943
7.90054 0.183258 -1.61059
6.82784 -0.634796 -2.38456
8.36879 0.555969 -1.5916
7.90002 0.111115 -1.53704
8.58098 0.476837 -1.31711
7.51651 -0.0291138 -1.90712
9.12027 1.24243 -1.65178
8.14351 0.478577 -1.95154
6.94633 -0.94989 -1.43832
9.11864 -0.528625 -1.30603
9.62509 1.22177 -1.85982
9.03316 1.20129 -2.10254
8.65396 0.831726 -1.65525
9.33667 -0.564301 -1.82822
8.19426 0.0586548 -1.14864
6.71603 -1.37143 -1.9609
6.74103 -0.906158 -1.69253
8.57024 0.829102 -2.16293
7.45668 -0.0990601 -1.89424
8.40021 -0.772736 -1.50797
7.3596 -0.488525 -2.33735
9.69276 1.52917 -2.15707
8.03525 0.245453 -1.54507
9.74611 1.31363 -1.83628
8.72543 -0.0188599 -1.18461
7.98593 0.376251 -2.10909
8.85956 0.889435 -2.12822
8.47408 -1.22287 -1.94158
6.90164 -0.56781 -2.2475
7.20076 -0.401489 -2.04295
7.89011 -0.295807 -1.10835
8.23643 0.0619202 -1.13195
8.33997 0.241119 -1.19864
8.0266 0.0643311 -1.39825
8.98889 1.04047 -1.93079
7.31601 -0.700531 -1.17576
8.8062 -0.951569 -1.54926
6.74239 -0.845398 -1.78824
8.43088 -0.91275 -1.57801
7.92656 -0.210571 -1.48653
6.98267 -0.507996 -2.35126
8.08092 0.353241 -1.64658
9.47493 1.53818 -2.00413
6.90334 -0.780884 -2.48698
9.69254 1.35193 -1.8456
8.45528 0.731598 -1.7574
7.57893 0.00396729 -1.94519
9.31046 -0.618927 -1.8866
7.34172 -0.194336 -1.94867
9.28191 1.45328 -2.20821
9.21954 1.3497 -1.6595
8.97676 1.17719 -1.60976
8.12006 0.467163 -1.89238
8.33031 -0.808533 -1.5696
6.90207 -0.751434 -1.58683
6.79826 -1.00879 -1.62871
7.22807 -0.709686 -1.29644
7.67648 -0.0751343 -2.32864
7.21405 -0.532288 -1.47608
6.83502 -0.803162 -1.6442
9.57335 1.48608 -1.86982
8.00594 0.361481 -1.93981
8.10168 0.387848 -1.59513
7.43962 -0.567413 -1.20583
7.29906 -0.411102 -2.24157
7.91173 0.289825 -2.23834
9.72858 1.38861 -1.7955
6.6037 -1.09958 -1.89137
8.59073 0.842316 -1.70655
8.76361 1.06509 -2.17398
6.73317 -1.19998 -1.68102
9.00038 1.22794 -1.90713
8.11594 0.483246 -1.90067
7.25081 -0.262054 -1.99698
9.36841 1.30386 -1.72139
9.27754 1.4183 -2.17987
6.67943 -0.979126 -1.76509
7.0918 -0.433563 -2.1681
9.36707 1.29843 -2.24483
8.97313 -0.298309 -1.22683
7.67274 -0.391541 -1.1916
6.64967 -0.915009 -1.89681
8.59575 -0.972992 -1.70076
6.65282 -1.14856 -1.87713
9.05008 1.18512 -1.65403
8.63553 0.899231 -1.79599
6.70818 -1.40311 -2.1296
9.67601 1.32983 -1.91534
8.27716 -0.716766 -1.60439
7.30302 -0.253723 -1.79577
9.53194 1.54129 -2.14648
9.24466 0.512451 -1.54795
7.48872 -0.134369 -2.24625
8.24985 0.620331 -1.98799
8.75664 1.12973 -2.26833
6.60672 -1.10059 -2.13993
8.70215 0.934052 -1.70169
8.48402 0.607513 -2.36655
7.7446 0.154327 -1.79005
10.0121 1.25403 -2.01107
7.53899 -0.016449 -1.89006
7.93993 0.306396 -1.94444
6.83043 -0.825684 -2.35693
6.7327 -1.12473 -1.59484
8.33769 0.634979 -1.79364
8.33051 0.605255 -2.29016
7.81998 -1.08344 -1.50565
8.77963 1.09366 -2.08954
6.90758 -0.699768 -1.64395
7.64891 -0.0978699 -1.50437
8.8822 1.16269 -2.18359
8.61957 0.856903 -2.30826
7.30272 -0.261108 -1.62917
7.9796 -1.25629 -1.55893
7.33719 -0.706543 -1.19743
8.50502 0.834076 -1.97451
7.24278 -0.891998 -1.2063
9.33778 1.50189 -1.99114
7.01613 -0.703583 -1.52719
8.6201 0.943817 -2.19641
7.37773 -0.167358 -1.95085
7.24248 -0.846771 -1.21271
7.75696 -0.260834 -1.12871
8.62335 -0.933228 -1.78003
7.80742 0.00692749 -1.46844
8.48244 -0.923126 -1.59998
8.29646 0.540802 -1.60989
8.98938 -0.85318 -1.9273
7.22173 -0.432159 -1.58965
7.13721 -0.743622 -1.39075
7.98352 -0.0779724 -1.16781
10.1212 1.10919 -1.84922
7.29956 -0.35022 -2.08898
8.02245 -1.24765 -1.82854
7.7094 0.129181 -2.05573
8.52417 -1.32013 -1.907
9.79688 0.584106 -1.62715
9.588 0.343445 -1.62533
7.22435 -0.347839 -1.80313
7.84985 0.262115 -2.12782
9.38423 1.23111 -2.20243
9.69655 1.30148 -1.72121
8.65211 0.949677 -2.23064
9.33493 -0.618927 -1.89709
6.91827 -1.26871 -1.47163
7.95067 0.242889 -1.63891
7.85487 0.240631 -2.04888
8.04321 0.47229 -2.15913
8.54442 0.492645 -1.29873
8.01598 -0.898041 -1.14369
7.30956 -0.580078 -1.28767
7.95872 0.311829 -2.07856
9.347 -0.42041 -1.44572
7.41603 -0.605347 -1.15023
7.1879 -0.658112 -1.37878
9.39523 1.50751 -2.15696
8.94556 0.970428 -1.51227
8.76448 -0.972748 -1.61178
7.14748 -0.325348 -2.31115
8.94461 1.24701 -2.33631
9.27203 1.41754 -1.78477
7.34073 -0.260315 -1.64889
7.131 -0.850739 -1.28974
8.82562 1.11215 -1.79263
9.40843 1.19839 -2.23104
8.76741 -0.925537 -1.70713
7.89102 0.289551 -1.85159
7.65149 -0.57959 -1.15126
7.92168 -0.238129 -1.47314
8.55544 0.645844 -1.40395
6.73647 -0.718048 -2.11592
9.0367 1.29901 -2.09715
9.66238 1.34103 -1.92603
8.60564 0.863708 -2.27277
7.0107 -0.868896 -1.99323
6.82816 -0.812744 -1.60016
9.10786 1.33997 -1.74006
9.0146 1.28326 -2.07899
8.57472 -1.2529 -1.69728
6.89897 -0.651703 -1.93365
8.44341 0.764313 -2.14679
7.89511 -0.113831 -1.26335
7.77979 -1.8017 -1.57739
9.19353 1.36017 -1.78055
7.04051 -0.491669 -2.04306
8.83325 1.11337 -2.04132
7.21077 -0.507172 -1.4979
8.59061 0.892273 -1.8934
7.80093 -0.427643 -1.10574
8.97604 1.26053 -2.34904
9.07646 1.24472 -1.86863
6.91463 -0.871765 -2.01229
7.85547 -0.775208 -1.12751
6.86156 -1.38153 -1.54221
6.64268 -1.00534 -2.20592
7.22856 -0.628723 -1.35194
8.99858 1.09006 -1.6362
7.09608 -0.408905 -2.14558
8.47552 0.795624 -2.14845
9.23943 1.4584 -1.99614
8.26826 0.55722 -2.24925
6.75169 -0.745239 -1.89335
7.51604 -0.0270691 -1.84237
7.22665 -0.389069 -2.10159
8.26163 0.626434 -2.23942
9.28958 1.48727 -2.03907
7.19061 -1.8681 -1.92953
7.70204 0.131165 -1.69629
8.30154 0.507599 -1.62148
7.00182 -0.507782 -1.64475
7.52921 -0.582581 -1.18183
8.55177 0.757721 -1.5805
8.19594 0.450165 -2.30067
9.88412 1.05994 -1.73052
8.26076 0.583252 -1.74504
9.94441 1.01135 -1.7408
8.87767 1.01102 -1.62503
6.89137 -0.758728 -1.99301
9.25882 -0.646667 -1.91275
7.34044 -0.30069 -1.6307
6.90645 -1.27332 -1.45422
8.12639 0.462891 -2.12639
8.01192 0.327423 -1.66438
7.16318 -0.364502 -1.73742
7.4874 -0.0669556 -1.95673
7.61174 -0.00967407 -1.64555
6.68286 -1.10056 -2.23872
8.45013 -1.3447 -1.79264
8.84105 0.800354 -2.34062
9.24834 1.45215 -1.89781
7.63864 0.000915527 -1.59738
7.63838 0.0508423 -1.69131
8.87334 0.821777 -2.09112
9.74901 1.39835 -1.88792
8.02596 0.362946 -2.24987
9.80016 0.641754 -1.63689
6.69197 -0.720062 -2.01212
6.86687 -0.625153 -1.93152
6.89378 -0.593231 -1.99282
7.22845 -0.339996 -2.16178
9.28658 1.49457 -2.19255
8.79063 1.13593 -1.79654
7.86351 0.22876 -1.63626
9.30954 1.01407 -1.60096
8.30598 -1.51517 -1.75845
7.27946 -0.611877 -1.95494
6.77196 -1.11328 -1.6829
6.88652 -0.597443 -2.19836
9.54245 1.51419 -1.92575
8.03482 -0.0545654 -1.27709
9.36996 1.10956 -2.05654
8.27605 0.610474 -2.00024
7.02914 -0.780823 -1.47787
8.83176 1.09467 -1.74422
7.28899 -0.29776 -1.74564
8.56245 -0.643127 -1.12468
8.39287 0.746674 -1.83992
7.20847 -0.494812 -1.99014
8.11192 0.483185 -1.79884
9.27309 1.4339 -1.80488
6.75845 -0.755615 -1.8126
8.60854 0.870575 -2.28359
6.7037 -1.09393 -1.73592
7.61795 -0.397339 -1.15988
9.3054 -0.651184 -1.7624
9.84979 0.896942 -1.64377
7.9653 0.385498 -1.91352
7.44365 -0.185883 -1.63791
6.63167 -1.05701 -1.89566
8.65575 -0.85968 -1.89336
9.24048 1.26407 -1.68359
7.97731 -0.238617 -1.25613
8.85101 1.13168 -2.09117
8.4321 0.38916 -1.52335
7.59088 0.0265808 -1.75329
7.78282 -1.01486 -1.64291
9.3111 0.69342 -1.55674
9.69046 1.51898 -2.02153
7.81618 -1.19125 -1.5402
9.10327 1.3316 -1.87107
9.1727 1.28061 -1.67607
9.96849 -0.051239 -1.65182
7.01984 -1.75748 -2.14335
7.4817 -0.492004 -1.32277
8.65269 0.999481 -1.94641
9.69836 1.0752 -1.68087
8.91519 1.05191 -1.61624
7.37436 -0.296356 -1.55571
8.56201 0.844727 -2.14612
8.7541 1.05069 -2.14549
8.23405 0.466064 -1.5733
7.68814 0.0483093 -1.64196
8.96242 0.955658 -1.5413
8.27652 -0.787445 -1.62519
8.88145 0.766388 -2.35154
7.80138 0.225342 -2.03817
8.47786 0.538849 -1.49213
6.79109 -0.655609 -2.29151
9.5733 -0.291718 -1.51838
7.98862 -0.30014 -1.28526
8.38185 0.645538 -1.45077
8.80489 1.13321 -1.82848
7.40729 -0.47522 -2.05298
9.20613 1.46167 -2.03889
7.43358 -0.263245 -1.53609
10.2277 1.03024 -2.0561
7.73648 0.150452 -2.12715
9.23476 0.529968 -1.55719
6.91118 -0.575226 -2.20718
8.93617 1.00253 -1.59032
6.90498 -0.804871 -1.50154
7.24969 -0.888672 -1.22092
7.86491 0.238434 -1.88417
7.44095 -0.211548 -1.54294
6.92332 -0.600616 -1.9467
9.80466 1.47531 -2.03229
9.85048 1.37961 -1.93607
9.04411 1.19104 -1.89934
6.81798 -1.40811 -2.28095
9.38161 1.276 -1.65627
7.48308 -0.862091 -1.15935
7.28096 -0.309479 -1.79717
7.85782 -0.205261 -1.15046
8.33371 0.656738 -2.10046
7.01196 -0.464325 -2.28909
7.12068 -1.62332 -1.52925
6.94231 -0.556366 -1.7902
8.01105 -1.26132 -1.79826
9.384 1.13336 -2.11053
9.69081 -0.246063 -1.59309
6.95508 -1.55319 -1.62041
8.21684 0.571625 -1.76225
7.12555 -1.4877 -1.44879
8.65219 0.959625 -2.14599
8.90135 0.98407 -1.52768
9.11807 -0.806 -1.83759
6.72618 -1.17184 -1.68821
8.43439 0.703888 -1.74036
8.53789 0.755951 -1.68541
7.34871 -0.45578 -1.45895
9.70976 1.51199 -2.21164
8.24138 0.452606 -1.55841
9.39824 1.13193 -2.15089
6.84319 -0.61319 -2.34973
7.27025 -0.51532 -2.46925
10.0325 0.935089 -1.75013
6.81154 -0.825745 -1.59443
9.27937 0.601715 -1.59418
7.9848 0.350525 -1.84458
8.01743 -0.244232 -1.37233
6.79124 -0.663361 -2.25005
7.11157 -0.493317 -1.63494
8.99054 1.32803 -2.40759
8.17032 0.389801 -1.56775
7.3551 -0.632751 -1.27763
8.8537 1.13913 -1.95546
8.23404 0.490814 -1.60001
7.35349 -0.274292 -1.56333
7.73399 0.109711 -1.73061
8.60313 0.941986 -1.94217
8.24648 0.595398 -1.89396
9.43434 -0.543182 -1.90486
6.71828 -0.916656 -1.64846
9.04756 1.24628 -1.70077
7.05008 -0.748871 -1.49058
8.23581 0.602081 -2.19333
7.60417 0.0379028 -1.99423
8.39247 -0.799316 -1.48132
8.70061 1.07645 -2.16737
7.41843 -0.603485 -1.25473
7.31267 -0.282654 -2.041
6.61746 -0.924591 -2.09723
6.97444 -1.61554 -1.67918
8.34038 0.654572 -2.14463
9.0578 1.33746 -2.24573
7.80858 0.228668 -1.93749
9.02283 0.83136 -2.06709
9.32611 -0.636139 -1.85777
9.26236 1.47098 -1.90853
7.43913 -0.437164 -1.37921
7.38747 -0.190247 -1.79922
9.25548 1.20349 -1.97554
6.67039 -1.21509 -2.15014
6.77054 -1.34277 -1.84714
7.64868 0.0522156 -2.09263
7.8889 0.124359 -2.34695
7.14145 -0.704559 -1.43551
8.60226 0.652161 -1.43826
8.76912 1.0022 -2.32071
8.80231 0.944977 -2.10438
7.18758 -1.85974 -1.87695
7.44472 -0.681427 -1.14012
7.25288 -1.94189 -1.94578
6.66185 -1.26254 -1.9566
7.92601 0.258179 -2.24124
9.26797 1.4758 -1.92329
7.29434 -0.257599 -1.74562
9.23274 1.38712 -1.70314
9.00829 1.27216 -1.81714
8.90471 1.14526 -1.90842
7.14159 -0.514771 -1.55069
8.43878 -1.40533 -1.69506
8.71945 0.986786 -1.88669
9.07448 0.67157 -1.55199
6.87984 -1.10324 -1.45889
7.49866 -0.0627136 -1.80225
8.34123 0.696198 -2.04523
8.62363 0.925232 -2.27266
8.25217 -0.364777 -1.72374
8.44434 0.791779 -1.49713
8.33247 0.16156 -1.18727
9.58147 1.50476 -2.13828
7.99503 -0.102051 -1.18908
7.5251 -0.775818 -1.43782
9.08804 1.09448 -1.59524
8.06248 0.394348 -2.05346
8.38519 0.590088 -1.59415
8.43413 0.770142 -2.05427
8.6152 -1.21075 -1.78293
9.25545 -0.522522 -1.32387
7.17172 -1.81827 -1.6862
8.93602 1.14133 -1.91124
7.14081 -0.710144 -1.40486
7.36021 -0.17334 -1.98392
6.8152 -1.20786 -1.52982
8.70688 0.768951 -1.53806
8.72128 0.658966 -1.43105
7.2851 -1.98715 -1.94707
8.99608 1.26471 -2.18826
9.12036 1.3822 -2.41117
7.32649 -0.241547 -2.19335
8.59982 0.924469 -1.91336
9.41765 -0.49649 -1.93957
7.29886 -0.876984 -1.19286
6.61804 -0.980682 -1.99022
7.89766 0.213287 -1.63698
7.26956 -0.427063 -2.34672
7.35248 -0.280914 -1.67565
7.99905 -0.255066 -1.30635
7.92834 0.3237 -1.8079
8.75993 -1.01083 -1.56508
7.79842 0.23056 -2.20064
9.83034 1.1051 -1.72332
8.98611 1.14902 -1.65355
7.33778 -0.577332 -1.32011
7.22421 -0.348175 -2.25711
7.32849 -0.693726 -1.22118
8.48091 0.765289 -1.83464
7.79422 0.0931091 -1.59609
8.84877 0.836945 -1.50163
9.20056 1.38071 -1.72026
7.04158 -0.813019 -1.40052
6.99921 -0.955109 -1.40421
9.16158 0.688141 -1.59376
8.34152 -0.65213 -1.72996
8.29698 0.444183 -1.5626
8.38885 0.709747 -2.042
8.44333 0.785004 -1.95473
7.71115 0.141418 -1.84227
9.58095 -0.303802 -1.55623
7.95036 -0.151031 -1.19391
9.56308 -0.348969 -1.48026
6.88657 -1.30792 -1.50594
8.92227 1.19659 -2.15689
6.76894 -0.667725 -1.88138
6.84506 -0.613525 -1.7587
8.70805 1.05362 -1.89465
9.34776 1.45605 -1.84418
9.54973 1.49313 -1.89788
8.80042 -0.932983 -1.87686
9.24284 1.34369 -1.70577
8.54552 0.783478 -1.6012
7.1342 -0.361694 -2.04647
8.14149 0.500031 -1.89922
9.14157 1.28238 -1.65479
9.04387 1.30048 -2.19311
8.12343 0.402863 -1.64606
7.50105 -1.79922 -1.50005
7.6011 -0.00088501 -2.27843
9.03964 1.16092 -1.63187
8.24205 0.553558 -1.73918
10.2114 1.05878 -2.02887
9.03148 1.00623 -1.94523
9.50407 1.50098 -1.8598
7.13136 -0.44342 -2.50603
9.45064 -0.488892 -1.98083
7.44974 -0.300964 -1.4936
9.09636 1.31064 -1.73687
9.14882 1.36249 -1.78839
7.35184 -2.06766 -2.09976
7.43382 -1.63675 -1.60863
8.48457 0.802551 -1.90118
9.6405 1.51358 -2.059
6.60797 -1.07596 -1.86032
7.33771 -0.209412 -1.85167
7.39929 -0.5737 -1.23011
8.86136 1.18393 -2.43814
8.96068 1.23538 -2.08758
9.5251 1.33621 -1.64663
7.10568 -1.85129 -2.14465
8.78847 -0.935547 -1.67979
7.62556 0.0361023 -2.01831
8.30217 0.578522 -1.6518
7.48376 -0.242371 -1.52093
6.94911 -0.5177 -2.39503
8.00081 -0.218231 -1.32435
9.69235 1.50641 -2.16532
7.97269 0.344116 -1.9926
8.58611 0.894257 -2.20435
8.14775 0.463806 -2.24625
8.02187 -0.115753 -1.20298
7.94633 -0.117218 -1.19836
7.99876 0.399109 -1.9488
8.79196 1.05597 -1.79066
8.43312 0.315277 -1.59803
8.86723 1.09915 -1.6358
6.76059 -0.812347 -2.13604
6.93504 -0.598206 -1.73314
8.36842 0.675018 -1.69171
7.24327 -0.573517 -1.41425
7.04601 -0.464203 -1.75269
7.96472 0.37851 -2.07867
7.15167 -0.364655 -2.38551
7.18758 -1.0022 -1.20501
9.01677 1.32837 -2.26328
8.7224 0.705048 -1.45221
6.88602 -1.50989 -1.7011
6.89436 -0.601471 -1.94106
7.90338 -1.2247 -1.60086
7.35971 -0.398285 -2.09184
7.45967 -0.119843 -1.73883
7.69864 0.0777283 -1.65916
8.72713 1.01761 -1.82173
9.40068 -0.586884 -1.82291
8.59731 0.933136 -2.18916
8.5004 0.697479 -1.59965
9.40045 0.621216 -1.56259
9.02798 0.798279 -2.07561
9.62259 1.29745 -1.89056
8.24321 0.530243 -1.65318
8.3679 0.288422 -1.20094
8.02147 -1.2135 -1.8443
7.85449 0.210541 -1.84268
8.69463 0.685364 -1.41374
9.02045 -0.766266 -1.91534
7.33914 -0.361542 -1.54165
6.68257 -1.31058 -1.99468
7.87654 0.251221 -1.90026
8.82622 -0.866028 -1.96535
7.11378 -0.870453 -1.24535
9.76161 1.49677 -1.9708
9.00761 1.27713 -2.14336
9.37392 1.24567 -2.13183
8.4747 0.800476 -2.18524
6.89424 -1.28992 -1.53468
7.16447 -0.40509 -2.04662
7.25003 -1.91296 -1.87796
8.80115 0.848602 -2.2861
7.5535 -0.118378 -1.56179
7.41476 -0.721344 -1.50639
8.76768 1.07596 -2.04906
9.35992 0.654449 -1.56044
10.1081 0.998199 -1.75614
9.99226 1.29813 -2.24149
6.8325 -0.701538 -2.00247
6.76956 -1.47247 -2.1647
8.6292 -0.918121 -1.80155
7.40158 -0.161224 -1.79143
7.21947 -0.332031 -1.88656
7.36058 -0.218506 -1.74314
8.38583 0.734985 -1.94645
9.08945 0.872223 -1.54174
8.46129 0.824707 -2.15501
9.38478 0.418396 -1.58484
8.45924 0.819214 -2.19183
7.60876 0.0874329 -2.12872
6.75381 -0.674042 -2.20636
7.91594 0.189117 -1.55243
7.06639 -1.73709 -1.88926
9.43788 1.52661 -2.28957
9.40144 1.53351 -2.19077
9.09224 1.26291 -1.6884
8.44104 0.351654 -1.24833
7.48553 -0.126312 -2.27782
6.92828 -1.06003 -1.4623
7.19077 -0.359802 -2.0978
8.37614 0.549011 -1.59582
7.59633 -0.0163574 -1.59646
9.05089 1.33978 -2.29227
8.92799 1.20901 -2.29477
7.68184 -0.112579 -1.50219
9.00769 1.28073 -2.20546
9.64304 1.29184 -1.72968
9.13733 0.610474 -1.54795
8.10631 0.398529 -1.64799
7.00171 -0.614105 -1.5989
9.91646 1.34384 -1.89042
8.38213 0.684662 -1.65048
8.69536 1.05417 -2.14023
8.75237 0.845428 -1.62253
6.90652 -1.54495 -1.68639
6.60594 -1.11877 -2.11077
8.36415 0.415924 -2.37804
7.21561 -0.787811 -1.21909
7.75024 0.1203 -1.69902
7.2023 -0.454773 -1.54368
6.76195 -1.24344 -1.60678
9.25511 -0.54541 -1.31296
6.80975 -0.964783 -1.50393
9.35399 1.23175 -2.1111
9.17322 1.40707 -2.18676
7.85521 -0.0418091 -1.33625
6.92332 -0.556732 -1.96636
6.62042 -1.0976 -2.14585
8.47609 0.445374 -1.32993
7.008 -0.870514 -1.35596
8.00873 0.3703 -1.70939
9.64409 1.52554 -2.22825
9.44894 1.53506 -2.04576
8.50446 0.747498 -1.64487
7.3831 -0.409637 -1.49305
7.59361 -0.166809 -1.50585
10.4361 0.629761 -1.98373
8.38582 0.72525 -2.25383
7.12407 -0.396515 -2.24549
8.15184 0.531525 -1.84454
7.65071 -0.590851 -1.13788
8.84218 1.14236 -1.8251
8.48387 0.654572 -1.60709
9.16292 -0.647461 -1.93285
9.60852 0.268463 -1.65102
6.65152 -1.00375 -1.79853
9.57045 1.3389 -1.79198
8.57332 0.896393 -2.10614
6.84604 -1.23215 -1.56599
6.66193 -0.925323 -1.80948
7.30083 -1.10873 -1.19339
9.13487 -0.800964 -1.87383
8.98863 1.33212 -2.44149
9.46468 -0.384583 -1.43628
7.11082 -0.353363 -2.24876
7.6618 0.0708618 -1.70903
9.51237 0.901672 -1.62204
9.62231 1.47333 -1.90244
7.58665 0.032074 -1.89112
8.70383 1.02704 -2.11935
7.44997 -0.31311 -1.46772
7.40204 -0.148193 -2.09002
8.62866 0.692383 -1.49512
8.73827 1.00571 -1.78816
7.92499 -0.153381 -1.5351
8.91106 0.694641 -1.53151
7.98097 -0.285126 -1.25154
8.49472 0.75473 -1.74226
6.87517 -0.577759 -2.41346
8.40376 -0.868805 -1.54978
9.04842 -0.619263 -1.24094
7.79918 0.18399 -1.95487
8.40306 0.740967 -2.04864
9.11823 1.39081 -2.13765
8.05739 0.364716 -2.29858
6.82292 -0.994568 -1.52546
8.35344 0.687073 -2.15667
7.42242 -0.807526 -1.48777
9.04143 -0.785919 -1.93134
7.53828 -0.23642 -2.36193
7.38968 -0.232391 -2.24966
8.7784 -0.924957 -1.83598
6.93848 -0.564941 -1.99674
7.79359 0.203644 -2.19605
8.59727 -0.7742 -1.91025
9.56013 1.534 -1.86296
8.35025 0.53656 -1.5539
8.73824 0.954681 -1.70004
6.61829 -1.1373 -2.03742
9.49278 -0.309601 -1.50006
7.35649 -0.229095 -2.27415
7.05202 -0.862915 -1.31624
7.65764 -0.374054 -1.16497
9.4017 1.22339 -1.61898
8.64725 0.84906 -1.69123
6.88054 -0.601288 -2.49355
7.6786 -0.363098 -1.195
8.85623 1.15289 -2.1379
7.80128 0.0677185 -1.59495
8.06697 0.445709 -1.78234
9.02092 1.24252 -1.64477
8.42879 0.64035 -1.64477
7.4615 -0.111237 -2.22927
9.44496 1.50113 -2.25491
7.51666 -0.511353 -1.19074
8.29921 0.657318 -1.89216
8.27603 0.562042 -2.26478
8.41132 0.447479 -1.25369
7.09462 -0.423676 -1.80087
8.07596 0.41095 -1.82235
8.78619 1.12305 -2.12007
7.09714 -0.415558 -2.09866
6.63933 -1.21027 -1.98524
7.27759 -0.642914 -1.98066
8.92949 1.21042 -2.19635
8.63583 0.807251 -1.64018
7.8185 -0.739594 -1.13211
9.11874 -0.762177 -1.74623
8.29723 0.642395 -1.83942
9.57915 1.54764 -2.25809
7.22108 -0.57373 -1.94156
7.34831 -0.220856 -2.23993
6.81699 -0.744476 -1.74243
7.74431 0.0565186 -1.59406
8.37039 0.304688 -1.21005
7.21373 -0.715729 -1.25888
6.69832 -1.14761 -1.68925
9.57262 1.38428 -1.75571
8.99257 1.25195 -2.10062
7.53851 -0.0501709 -2.09417
9.05171 1.33145 -2.20709
9.26884 1.47205 -2.21143
8.53195 0.157776 -1.18106
9.38585 1.19766 -1.63731
9.12431 1.17551 -1.61988
7.52736 -0.0505676 -1.74022
7.69156 -0.406281 -1.14285
9.6353 1.54047 -2.03853
8.81487 -0.871796 -1.93867
7.93076 -1.22595 -1.65456
8.61742 0.849762 -1.59502
6.61157 -1.05548 -1.90496
7.28972 -0.289703 -1.98594
9.44724 1.53198 -1.99098
6.68471 -0.82193 -2.19825
8.98479 1.16104 -1.68
7.54776 -0.00897217 -2.14345
9.28323 1.45935 -2.23994
7.89345 0.0396118 -1.45081
7.50444 -1.48602 -1.29668
9.28064 1.46402 -2.00571
7.19855 -0.38327 -1.81801
7.23618 -0.35556 -1.68952
6.99451 -0.533966 -1.93201
8.72881 0.944916 -2.2534
7.244 -0.36676 -1.58641
7.29767 -0.945038 -1.17973
8.07974 0.472168 -2.05476
9.64516 -0.241089 -1.55206
7.82672 -0.470825 -1.11041
7.04578 -0.451538 -1.9878
7.04906 -0.421936 -2.35192
7.7188 0.173553 -2.12942
8.18695 0.339752 -1.55647
7.06755 -1.63223 -1.49508
7.29181 -0.251221 -2.09777
8.39049 0.745667 -1.89471
8.92896 1.17688 -1.71309
7.28108 -0.301056 -1.95923
6.62497 -1.16043 -2.09288
6.69148 -0.774597 -2.07911
6.72298 -1.43234 -2.11714
7.64479 0.0332642 -1.64906
9.15085 -0.712006 -1.79565
7.55692 -0.0276184 -1.71673
8.46518 0.824524 -2.02704
6.85483 -1.06097 -1.49315
7.44112 -0.558441 -1.23047
6.90009 -1.43201 -1.52955
7.74004 0.146973 -2.09314
8.32397 0.383698 -1.56479
8.74342 1.08167 -2.10965
7.92462 -1.23398 -1.63834
7.03392 -0.899475 -1.35279
8.96628 -0.86795 -1.74541
9.3521 1.19016 -2.11082
7.16696 -1.01193 -1.25482
7.41031 -0.157867 -2.14005
6.98994 -0.523987 -1.70358
7.33124 -0.248444 -2.1483
8.36951 0.731049 -2.21665
7.22473 -0.390259 -1.63628
7.02719 -0.638519 -1.86838
8.86128 1.17746 -2.34815
9.10025 -0.269714 -1.28482
7.83432 0.218903 -2.18626
6.83839 -1.30002 -1.64333
8.05791 -0.536224 -1.107
7.94206 0.276062 -1.76284
8.58035 0.902893 -2.14167
9.66861 1.50638 -1.9855
7.18553 -0.471527 -1.96387
9.04774 1.25339 -1.925
7.37019 -0.415985 -2.08248
7.59633 -0.113861 -1.54488
8.3847 0.71991 -1.52877
7.32527 -0.339294 -1.57449
9.73865 1.50763 -2.21898
8.88992 0.00610352 -1.27142
7.34543 -0.196503 -1.89856
9.01205 1.28665 -1.74944
9.99471 1.27921 -2.00304
8.30556 -1.48987 -1.71042
8.27702 0.608002 -1.94273
6.80861 -0.699738 -2.02857
8.48254 0.756104 -1.54417
7.69655 0.119415 -1.90644
8.44295 -0.109772 -1.13799
9.57002 1.27634 -1.71575
8.93166 1.20093 -1.74647
9.17165 -0.74649 -1.84264
7.50319 -0.061615 -2.09544
8.70055 0.952148 -1.74183
8.69371 0.751129 -1.48902
7.00575 -1.6604 -1.65299
8.08818 0.521942 -2.16611
8.91174 0.777893 -2.14037
6.83517 -1.44662 -1.83673
8.32439 0.602661 -1.70449
7.05072 -1.70132 -1.92017
8.44414 0.783722 -2.1997
9.0882 0.845032 -1.99734
7.90248 0.293671 -1.89236
6.70201 -0.756134 -2.04304
9.384 1.38242 -1.74454
7.61757 -0.374542 -1.1837
9.11412 1.3569 -2.18108
6.66408 -0.986115 -1.82967
8.13184 0.392487 -1.59542
7.21663 -0.439087 -1.57552
9.09996 1.29657 -1.69462
8.78954 1.03418 -2.39216
8.90114 1.18805 -1.82355
9.35617 1.39417 -1.79124
7.04028 -0.504669 -1.74319
9.60396 1.57101 -1.98527
8.45879 0.789764 -1.88289
7.87762 -0.265533 -1.1173
9.34822 1.50226 -2.04185
8.94363 1.22757 -1.7916
8.45393 0.441254 -1.2951
8.28801 0.359192 -1.53401
6.81795 -1.03012 -1.49893
6.86118 -0.618713 -2.14902
9.40388 1.49997 -1.84593
8.55869 0.880768 -1.84595
9.18486 -0.657288 -1.9123
7.53499 -0.195862 -1.5006
7.35483 -0.165039 -2.09189
6.92773 -0.548737 -2.252
9.08786 0.876801 -2.26574
7.83162 0.201996 -1.99286
8.45255 0.793304 -2.14298
10.4317 0.691101 -1.99777
7.38078 -0.493683 -2.01003
8.49919 0.835876 -2.03969
8.59601 0.88205 -1.75936
7.17633 -0.826385 -1.22941
7.66129 0.0869446 -1.84866
8.57524 0.731537 -1.45889
8.83398 1.02432 -1.97361
7.07808 -0.438599 -2.05962
8.78122 1.03635 -2.063
8.40094 0.706604 -1.79782
7.19829 -0.337982 -1.88424
8.41078 -1.41324 -1.77948
8.40419 0.736145 -1.99436
9.39699 1.34918 -1.74065
9.12509 1.06665 -1.55711
8.72597 1.04892 -1.9416
8.27855 0.640167 -1.9479
6.94093 -0.854279 -2.05865
6.91121 -1.6416 -2.13053
7.91634 -0.0143127 -1.47879
7.85539 0.271667 -2.12037
7.89275 0.231567 -1.76828
7.46675 -0.143463 -2.23083
7.40007 -0.659363 -1.19628
9.19005 1.40814 -1.88879
7.63435 0.0450134 -1.79993
8.66859 0.767395 -1.48504
6.83572 -0.652588 -2.03838
7.15289 -0.617279 -1.49263
6.62097 -1.10355 -2.07632
7.06474 -0.418823 -1.8089
6.77348 -1.36258 -1.75335
6.89417 -1.34106 -1.51345
7.91249 0.225616 -1.58456
9.77411 0.350403 -1.62021
8.47404 0.419556 -1.31176
8.56903 0.898743 -2.22857
8.78693 -1.05542 -1.70899
8.82114 1.12769 -2.21334
8.59419 -1.25223 -1.73977
7.92244 0.245636 -1.84061
6.64336 -0.988312 -2.22469
9.91632 0.257965 -1.65376
10.2023 1.06348 -2.00943
6.65598 -0.81601 -2.00613
7.83199 0.00088501 -1.5074
8.29213 -0.675629 -1.6664
7.44649 -0.142303 -2.19092
6.65958 -0.959015 -1.79099
8.05067 0.11084 -1.47389
6.82684 -0.665436 -2.00469
7.45128 -0.247528 -1.50668
8.62617 0.843842 -1.61217
6.7957 -1.38467 -1.84162
7.06511 -0.436188 -2.12969
7.66156 0.0845642 -1.88416
7.18361 -0.366882 -1.75338
7.50835 -0.051178 -1.8735
8.27312 0.557159 -1.70116
7.66682 -1.76135 -1.47979
9.56712 -0.334198 -1.55697
6.75902 -1.28287 -1.7169
8.19212 0.477936 -1.65868
9.03616 1.32562 -1.80327
8.47923 0.746033 -1.44695
6.65048 -1.25381 -2.03348
8.33662 -1.49561 -1.74628
9.43582 1.51132 -2.03092
9.46143 1.05673 -1.62514
8.93741 1.1994 -2.00223
7.18033 -0.451324 -1.64755
9.5825 -0.311035 -1.58884
8.69557 0.95694 -2.15868
8.58965 -0.701843 -1.14536
7.3073 -0.474579 -1.96501
8.68764 0.732727 -1.45261
8.79657 1.08987 -1.84725
10.2012 0.485321 -1.74871
7.00392 -0.461578 -1.78614
8.82617 1.08835 -1.88576
6.99738 -0.863922 -1.96579
6.84909 -0.606171 -2.43911
6.80789 -0.616577 -2.35163
7.56873 -0.5914 -1.13862
8.87445 1.00427 -1.97839
9.29927 1.47745 -1.89559
8.4359 0.30249 -1.19887
7.5578 -0.500732 -1.22062
8.00613 0.343628 -1.69174
8.10587 0.0245972 -1.18135
8.47751 0.708252 -1.67971
7.95103 -0.248108 -1.24446
6.61833 -0.997253 -2.02166
9.06306 1.36496 -2.37995
8.34259 -1.46466 -1.78627
8.43086 0.747681 -2.046
8.41689 0.312653 -1.57986
7.23985 -0.294891 -2.09407
8.56596 0.837341 -1.68076
9.58983 1.56561 -2.02202
9.05724 1.32266 -1.76197
9.40472 1.15491 -2.18418
6.6261 -1.11481 -1.84202
8.814 1.04343 -1.6475
7.9743 0.357697 -2.21815
9.62167 1.52594 -2.20438
8.35625 -0.03479 -1.13871
9.13057 1.40182 -2.25206
8.29532 -0.749512 -1.59104
9.52213 1.25015 -1.64439
9.39449 1.49902 -1.93369
7.04858 -1.70334 -1.65733
7.17552 -0.76059 -1.31265
7.75754 0.173615 -1.80622
7.54062 -1.39337 -1.22167
8.04048 0.35611 -1.73012
6.67685 -0.919464 -1.80154
6.84293 -0.900452 -2.16175
9.7476 0.852264 -1.61171
9.84743 1.4339 -2.25871
7.04158 -0.604828 -1.90564
8.37781 0.455505 -1.50692
8.00233 0.396484 -1.84566
9.39449 1.50568 -2.19903
7.5661 -0.787292 -1.4939
8.10052 -1.3259 -1.78765
9.79976 1.05167 -1.66491
9.75168 1.39008 -1.84543
7.80208 0.208588 -1.68118
8.338 -1.36029 -1.93559
6.64391 -0.906128 -2.09291
6.79219 -0.755554 -2.38742
8.10304 0.310608 -1.52403
8.06825 -0.104675 -1.14349
6.80768 -1.4075 -1.71238
7.5466 -0.0864563 -1.6422
7.18797 -1.84253 -1.67858
6.6987 -0.893921 -1.93312
6.9295 -1.51102 -1.62753
6.66273 -0.900757 -1.84392
8.78027 -0.950226 -1.82687
7.67177 0.0596924 -1.91278
8.99352 1.24579 -1.74012
7.58232 0.00924683 -1.78701
8.14581 -0.0303345 -1.21453
9.20657 1.44061 -1.89119
7.01134 -0.894012 -1.34755
9.65631 -0.0888672 -1.61637
9.13403 1.05121 -1.58719
8.38803 0.304779 -1.245
9.34187 -0.622681 -1.93823
9.35257 1.29416 -2.15763
9.01175 1.2818 -1.95235
9.0791 1.06256 -1.58097
8.47604 -1.3139 -1.84647
7.97314 0.378113 -2.00328
6.93652 -1.26816 -1.49136
7.6768 -0.0329895 -1.57208
9.4418 0.923248 -1.61348
8.56288 -1.24493 -1.73589
8.03134 0.385437 -1.74937
8.26869 0.619476 -1.93533
8.075 0.388184 -2.29081
7.74203 0.0298157 -1.75919
7.22948 -0.787872 -1.23267
9.13469 1.39337 -2.15024
9.55237 1.34467 -1.74023
9.49803 1.53033 -2.04802
7.67839 -0.440948 -1.17842
7.87192 0.263336 -2.04597
7.05409 -1.78848 -2.13353
8.82124 0.868896 -1.54737
9.62108 1.38016 -1.87175
8.07997 0.423645 -1.6979
9.089 1.20218 -1.91041
9.3614 -0.438873 -1.44651
7.48163 -0.104858 -1.74437
9.39987 1.29929 -1.73677
9.26212 1.42923 -2.14316
7.46182 -0.171265 -1.53524
7.32719 -0.483856 -2.26553
7.29044 -2.01828 -2.09241
9.23779 1.35172 -1.75626
8.06062 -0.00701904 -1.15047
8.95779 1.2861 -2.41176
8.8988 1.10468 -1.64369
8.20192 0.494659 -1.69457
9.31113 1.38815 -2.23434
7.19522 -0.619354 -1.47435
8.34523 0.667725 -1.4384
8.34294 0.699768 -1.99099
8.75139 -0.959351 -1.64053
8.69603 0.990875 -1.89362
6.76431 -1.41956 -2.21589
9.543 1.45749 -1.86737
7.99501 0.091217 -1.39859
8.52362 0.810608 -2.29719
8.9295 0.964478 -2.00242
8.53337 0.53653 -1.31189
6.97682 -0.481964 -2.37241
9.23569 1.36679 -1.96616
7.10782 -0.429199 -1.60607
7.34589 -0.220001 -2.19614
8.39601 -0.871613 -1.58054
8.84132 1.1524 -2.34108
8.43872 0.724457 -2.27917
7.12459 -0.793274 -1.33253
7.60764 -0.0368042 -2.27475
6.70158 -0.767548 -1.96181
9.1828 1.24619 -1.6559
7.93118 0.27713 -1.61966
8.58278 0.834534 -1.80175
7.2166 -0.314056 -1.84744
7.90044 -0.137848 -1.25064
8.46152 0.552643 -1.49604
7.2719 -0.476807 -1.52059
8.43845 0.747253 -1.45016
9.38092 -0.437225 -1.46767
8.60764 -1.24432 -1.78001
7.68361 0.0877991 -1.93729
8.85109 1.16147 -2.39032
8.39311 0.726532 -1.49164
6.71303 -1.23666 -1.78732
7.20782 -0.748413 -1.23488
7.72298 0.0953674 -2.02917
8.33067 0.175568 -1.16808
8.45036 -1.3576 -1.8414
9.78604 1.48529 -1.9958
6.77252 -0.777008 -1.79817
6.65341 -1.15598 -1.80558
6.84383 -1.41464 -1.64592
9.3725 -0.548615 -1.83687
7.46208 -1.44815 -1.29845
7.01727 -0.506195 -1.90592
9.47614 1.07031 -1.63397
9.72903 1.25058 -1.68077
6.91687 -0.683533 -1.56813
7.73183 0.0817566 -1.65269
6.63133 -0.930908 -2.12597
8.41016 0.74411 -1.41206
10.131 1.19229 -2.28161
6.8309 -1.19867 -1.54352
7.77232 0.132782 -2.27892
8.60031 0.602081 -1.39458
8.56161 0.801849 -1.63831
8.88181 0.847595 -1.52143
9.20844 1.44467 -1.99611
6.77696 -1.45145 -2.1944
9.53946 1.51471 -2.18247
8.7876 -0.920319 -1.73966
7.73558 -0.665436 -1.13575
7.06105 -0.777771 -1.41822
9.22102 0.671448 -1.59534
9.04494 1.29248 -1.99314
9.3941 1.24542 -2.24302
7.64102 0.0383301 -1.74756
8.28979 -0.8367 -1.60701
9.32057 -0.497375 -1.45894
8.51492 -0.917328 -1.67371
9.13483 1.11343 -1.64056
7.59956 -0.0545349 -1.59477
8.38692 0.492645 -1.55678
8.58815 0.798309 -1.53075
7.58615 -0.0758057 -1.55702
9.98335 0.0947571 -1.65255
6.77286 -0.739563 -1.82674
8.64235 0.945343 -1.95511
7.09006 -1.81253 -2.11644
9.11061 -0.782715 -1.71426
6.63284 -1.10403 -1.88422
8.75963 -0.93869 -1.6834
7.90591 -0.817993 -1.1279
7.7009 -0.0708923 -1.50883
8.21251 0.535522 -1.74619
7.91359 0.343048 -1.93192
9.62096 1.18768 -1.69277
7.0575 -0.391266 -2.44049
7.93826 0.30014 -1.78893
9.04576 1.29547 -1.741
8.58342 0.786957 -1.4968
6.8922 -0.835632 -1.49728
8.32895 -0.754822 -1.60477
9.28806 1.45154 -2.27952
7.79964 -0.410675 -1.12505
8.84805 0.786316 -2.30743
7.75505 -1.02805 -1.45259
6.75677 -1.33099 -1.73631
8.17345 -1.46011 -1.65595
9.93825 0.0783997 -1.64864
6.65952 -0.894836 -1.9264
9.78958 1.39154 -1.89703
6.95004 -0.561401 -1.75482
8.89363 1.10605 -1.86026
8.01912 0.423279 -2.01183
8.30717 0.674408 -2.02946
7.82126 0.21933 -1.6711
7.61029 -0.980499 -1.16207
7.48256 -0.121368 -2.21171
7.45148 -0.476776 -2.41636
8.84967 0.820435 -2.12852
9.59337 1.53806 -1.94811
6.65144 -1.05508 -2.23611
6.74025 -0.858551 -1.7041
6.89133 -0.575897 -1.97938
6.62518 -1.02249 -1.9154
8.53896 0.700714 -1.61238
9.50618 0.327179 -1.59301
6.67259 -0.922485 -2.11575
9.42677 1.35361 -1.7607
7.98981 0.390625 -2.1448
8.7711 0.977722 -2.29728
9.40956 0.856354 -1.57607
9.50612 0.537079 -1.57061
6.63385 -0.965363 -2.00003
9.25395 1.4606 -2.07987
7.69185 -0.513031 -1.13381
9.03419 1.23917 -1.9045
7.58046 -0.20047 -1.49731
6.76259 -1.20944 -1.62022
7.53481 -0.0132751 -2.10547
9.76546 1.50549 -2.27491
6.78481 -0.807068 -2.10713
8.938 1.20996 -2.03892
7.53896 -0.100067 -1.59166
7.75377 0.182953 -1.93683
7.59781 0.0122986 -1.98512
7.67726 -1.23718 -1.17201
7.22353 -0.355255 -2.18783
7.13055 -0.764648 -1.35816
6.95953 -0.498352 -2.43661
7.94475 0.303528 -2.04688
8.23166 0.597321 -2.15196
7.81047 0.176727 -1.74888
8.02345 0.438477 -1.90092
7.39751 -0.768036 -1.45275
7.13684 -1.81235 -1.88066
8.02119 0.094696 -1.42556
8.78961 0.870758 -1.4946
8.82381 0.894012 -1.57679
7.48532 -0.151886 -1.59153
7.54721 -0.511963 -1.15394
8.54782 0.819122 -2.24007
8.41899 0.785309 -2.17534
7.44261 -0.337097 -1.47643
6.94695 -0.547699 -2.38196
10.0575 1.25327 -2.00455
7.02022 -0.580994 -1.65297
8.98665 -0.827789 -1.93629
9.73512 1.27609 -1.7121
8.07465 -0.038208 -1.18291
8.18869 0.550201 -1.84808
9.22653 1.48038 -2.0423
8.57523 0.860046 -2.21106
6.80086 -1.41165 -1.74067
8.49823 0.829346 -1.9467
6.78792 -1.50232 -2.15088
9.13924 -0.748657 -1.79707
8.74838 1.10858 -2.23998
8.79137 0.991302 -2.39704
9.34158 1.3378 -2.24568
7.35187 -0.371246 -1.51884
9.12379 1.2052 -1.63663
7.58231 -0.526276 -1.14454
7.54002 -0.42337 -1.217
6.75774 -0.788544 -2.06477
6.77946 -1.49603 -2.1203
8.99158 1.24847 -2.14214
7.97333 0.315887 -1.99978
8.97285 1.10172 -1.90373
9.60031 -0.298584 -1.64699
7.17683 -0.498993 -1.95129
9.77635 -0.0861206 -1.62472
10.0735 1.19229 -2.15039
8.93504 -0.911072 -1.71223
7.66756 0.10672 -1.99539
7.98721 -0.163666 -1.11549
8.12451 0.446716 -2.10957
7.31381 -0.506042 -1.37286
8.75624 0.986389 -1.64983
7.75113 0.139618 -1.74836
9.10391 -0.859283 -1.90926
7.48767 -0.0704956 -1.75484
8.07706 0.441498 -2.00304
7.73177 0.140808 -1.99821
10.4224 0.74295 -2.26569
6.82964 -0.755341 -1.64423
9.23453 0.997589 -1.5724
9.19814 0.204041 -1.42245
10.1128 1.19138 -2.23953
8.1824 0.270935 -2.39688
8.90128 1.19449 -2.10262
9.98973 1.3006 -2.02722
6.85588 -1.5351 -1.91638
9.04405 1.30591 -1.7873
8.44167 0.394684 -1.26903
6.8163 -1.24622 -1.54818
7.5983 0.0317383 -1.94689
9.26239 -0.643585 -1.75529
8.59122 0.909729 -1.94454
8.72165 0.791351 -2.38036
8.61826 -1.17075 -1.82928
7.84111 0.20401 -1.80451
7.89516 0.0323486 -1.39629
8.45958 0.304535 -1.22628
7.37688 -0.231964 -1.68471
7.17366 -0.489929 -1.60951
7.03615 -0.595978 -1.58558
7.1945 -1.04568 -1.24018
6.9977 -0.638031 -1.57935
9.53416 1.00082 -1.64454
6.95741 -0.51355 -1.7472
7.98213 0.288544 -1.69362
8.64014 0.934326 -1.84738
7.38187 -0.51413 -1.4352
9.33334 -0.567657 -1.79689
8.14496 0.455658 -1.72868
8.34399 0.281891 -1.24708
7.83325 0.0418091 -1.54535
6.96083 -0.510376 -1.792
8.89857 1.1889 -1.79571
7.68272 0.128387 -1.79462
8.87483 1.04916 -1.64673
8.70927 0.844574 -1.55023
7.24715 -1.09946 -1.21817
7.24712 -0.569733 -1.99716
8.74655 0.922516 -2.29025
9.36754 1.36072 -1.77851
7.6564 0.0841064 -1.73938
8.70723 0.961395 -2.20364
8.03572 0.404663 -1.89272
8.17238 -1.34186 -1.93564
8.99518 -0.949951 -1.88404
9.87596 0.00643921 -1.71719
8.15306 0.499847 -2.25132
6.76593 -1.34625 -1.78027
7.34071 -0.24176 -1.9506
6.67307 -1.28024 -1.95129
6.6302 -1.15897 -1.84566
10.1298 1.04703 -1.83884
8.67459 0.988312 -1.94251
7.45172 -0.398285 -1.43916
7.08096 -0.574036 -1.51843
7.274 -0.268127 -1.70612
7.66025 -1.60641 -1.31115
7.56038 -0.0518188 -1.64137
9.08815 1.18671 -1.63816
7.23718 -0.322083 -1.60308
8.05077 0.281769 -1.5461
8.53889 0.785614 -1.7014
8.19078 0.54715 -1.94567
7.9351 0.0383911 -1.4467
8.95128 0.692841 -1.52821
7.5271 -0.0883484 -1.72002
8.19278 0.510437 -2.08002
7.29622 -0.255341 -1.98986
6.8158 -0.93161 -1.53988
6.84723 -0.692993 -1.77887
8.60179 0.892761 -2.25027
8.17482 0.487762 -2.00548
9.25 1.41452 -2.16229
6.90768 -0.821106 -2.0374
7.95024 0.296356 -2.27751
7.62761 0.00344849 -1.70141
8.04515 0.354156 -1.68781
7.66748 0.124268 -2.17403
7.87364 0.252289 -2.16086
7.39249 -0.596191 -1.20768
7.45621 -0.451538 -1.33376
7.63846 0.0529785 -1.84406
8.28075 -1.46063 -1.72386
7.34055 -0.208252 -1.6461
8.59639 0.908539 -1.78936
8.7825 1.00775 -1.73492
9.85951 1.39096 -2.13888
7.52689 -0.910156 -1.15221
8.76988 0.986176 -2.05922
6.94591 -0.793915 -1.53006
8.42253 0.386261 -1.5062
9.74773 0.891205 -1.64585
7.40488 -0.570526 -1.21666
9.09459 1.33389 -1.69343
9.56093 1.30734 -1.73565
6.99429 -0.477692 -1.75764
7.69565 -0.054718 -1.5448
9.09448 1.37994 -1.8552
9.38239 1.49484 -1.89968
7.52962 -0.0401917 -1.88409
7.99648 -0.223938 -1.29311
7.64194 0.0683899 -1.92323
8.586 0.0888062 -1.19516
9.5784 1.5235 -2.15473
7.45299 -0.457214 -1.30933
6.77907 -0.704559 -2.19242
7.75096 0.154358 -2.04523
9.04817 1.09708 -1.58628
7.47426 -0.203674 -1.53743
7.5706 -0.181488 -1.52212
8.22713 -0.400299 -1.65588
7.98723 0.343658 -1.89527
7.45604 -0.148285 -1.69244
8.97139 1.2688 -2.31861
8.33842 -0.675812 -1.70099
9.46809 0.893188 -1.61126
8.6066 0.544617 -1.36083
8.39021 0.649567 -1.68885
7.04166 -0.854462 -1.35056
6.74586 -1.02536 -1.66498
6.83389 -0.566406 -2.41148
7.09393 -0.665985 -1.92604
7.88884 0.204987 -1.74241
8.31256 0.58786 -1.5966
7.63518 0.0485535 -2.04445
7.30443 -0.222473 -2.14088
6.60838 -1.11951 -2.04444
8.69301 0.999176 -2.11016
8.39946 0.68338 -1.69818
9.6927 1.34531 -1.73513
8.17169 0.502899 -1.7836
7.92662 0.29303 -2.24479
6.82613 -1.37115 -1.62538
8.74797 0.847534 -1.58429
9.08861 1.38474 -2.34209
7.10933 -0.408356 -2.19318
7.4928 -0.108246 -1.99961
7.31093 -0.255676 -1.88972
9.01773 -0.792999 -1.91803
8.5399 0.854828 -2.04288
8.47745 0.776642 -1.66747
9.24942 1.44135 -1.85783
8.68922 0.941132 -1.78975
9.56438 1.57245 -2.22181
9.72057 -0.187958 -1.62949
7.78561 0.0384827 -1.54555
7.79059 -0.020874 -1.51292
8.65822 0.97229 -2.18585
7.36055 -0.246429 -1.59064
8.06671 0.00616455 -1.18602
9.48164 -0.334076 -1.49475
8.5298 0.763763 -2.31553
8.80669 1.13492 -2.29541
7.2278 -0.760925 -1.25505
10.4076 0.808441 -2.27579
7.88393 0.255432 -2.09494
8.39783 0.603912 -1.64081
7.12007 -0.463104 -2.18961
8.40541 -0.893463 -1.51899
9.83545 1.40515 -2.09051
8.64381 0.789886 -1.59811
6.68466 -0.86496 -1.85601
7.01709 -0.825592 -1.39694
6.66396 -1.28699 -1.93321
8.45171 0.67569 -1.64185
6.95615 -1.65906 -2.0944
7.78976 -0.260651 -1.15886
7.11887 -0.480621 -1.56001
7.81114 0.184479 -1.65264
7.69191 0.0921936 -1.99246
8.83864 1.15158 -2.29449
7.57512 0.00283813 -1.88615
8.34221 0.649353 -1.69664
6.6291 -1.07623 -1.86281
7.27986 -0.790649 -1.21206
8.03522 -0.218536 -1.11635
7.19226 -0.973053 -1.21618
8.75224 1.09741 -2.14727
8.93633 1.02118 -1.55841
6.96603 -0.581055 -2.36674
9.18826 0.686615 -1.59967
7.47769 -0.777374 -1.42007
8.04594 0.429749 -1.95184
9.05232 -0.86261 -1.92709
9.50386 1.50214 -2.09716
7.3033 -0.229218 -2.21822
6.7588 -0.718597 -1.92664
8.23573 0.56897 -2.21715
6.93483 -0.74173 -1.5719
8.83344 1.13489 -2.24969
9.40407 1.47354 -1.80508
7.15041 -1.90067 -2.14821
8.74341 0.994598 -1.74609
6.73544 -1.18137 -1.62082
7.28726 -0.610504 -1.9911
8.27644 0.616119 -1.79343
8.87704 0.985657 -1.60381
6.95329 -0.905609 -2.41233
7.18625 -0.40918 -1.69782
9.45042 1.10468 -1.63296
8.86295 1.0235 -2.44952
6.83382 -0.700134 -2.03748
7.86227 0.176636 -1.6686
7.51112 -0.0659485 -1.69307
6.91711 -0.675568 -1.66048
7.27811 -0.900574 -1.19871
7.14401 -0.438324 -1.73484
8.73831 1.05209 -2.09032
8.25835 0.574005 -1.70839
7.07434 -0.629944 -1.91209
9.71988 1.00888 -1.62769
9.11086 1.38364 -2.20015
7.83888 0.238892 -2.09279
7.69194 0.0623474 -1.68021
9.70679 1.09882 -1.64325
9.43048 1.51465 -1.98155
10.1046 0.292664 -1.70444
9.12564 1.38348 -2.35653
6.94145 -1.67169 -2.12957
8.34831 0.684479 -1.75425
8.52661 0.810699 -1.8357
7.02991 -0.449493 -2.28513
8.92714 1.19559 -1.79444
7.21448 -0.286926 -1.97939
10.3848 0.815125 -2.3464
10.0556 1.20392 -2.09925
10.0358 1.23587 -2.06197
10.2602 1.00314 -2.12186
9.99352 1.24933 -1.96578
10.4626 0.721313 -2.07812
10.0049 1.1886 -1.97389
10.4526 0.701904 -2.04798
10.1407 0.986786 -1.8447
10.404 0.651672 -1.92239
10.1323 1.01114 -1.81178
10.1125 1.01178 -1.78555
10.4077 0.568268 -1.89931
10.1287 0.915375 -1.7952
10.379 0.578033 -1.84188
10.3884 0.497894 -1.83279
7.82585 0.19754 -1.95476
7.11577 -0.363342 -2.20494
8.04482 -1.30313 -1.78502
6.69527 -0.802673 -1.99147
8.65962 0.896332 -1.70339
8.55109 0.818329 -1.87978
7.94676 -0.264069 -1.46021
8.50262 0.842072 -2.09005
8.29462 0.647614 -1.99637
10.3824 0.870483 -2.31228
6.82585 -0.65097 -2.30263
9.75266 1.44409 -1.90358
8.49652 0.788635 -2.25763
8.9592 1.23929 -1.9203
7.77492 0.105438 -1.64056
6.67902 -1.0127 -1.75326
7.45433 -0.53299 -2.42136
8.41666 0.775848 -1.51249
8.51199 -1.00259 -1.79161
7.98811 -0.618378 -1.10511
8.61964 -1.20068 -1.79914
7.92941 -0.20462 -1.2694
8.21266 0.605438 -1.97232
7.99947 0.299469 -1.64662
6.76288 -1.01035 -1.59021
8.89334 1.23105 -2.45639
9.74069 1.51144 -2.24481
9.64095 0.873383 -1.66419
9.56155 1.54953 -2.23955
9.70602 1.52914 -2.19749
9.89651 1.39627 -2.24894
6.98473 -1.39069 -1.45985
9.45256 1.46591 -2.28264
9.54552 1.54626 -2.19472
9.91727 1.31418 -2.23079
6.86626 -0.60965 -2.18738
9.8947 1.34677 -2.19635
10.1285 1.15942 -2.25555
9.38667 1.52664 -2.14384
10.117 1.14969 -2.22314
9.24825 1.45523 -2.18848
9.3649 1.53784 -2.07964
10.041 1.2431 -2.10782
9.27681 1.39883 -2.16605
9.60301 1.54095 -1.98715
9.75584 1.47925 -1.93602
9.75999 1.45413 -1.94341
10.2149 1.07919 -2.0298
9.45192 1.53427 -1.94703
9.57408 1.5484 -1.90284
9.95222 1.29953 -1.94325
10.1927 1.09753 -1.99361
9.55641 1.53558 -1.89687
9.29732 1.48923 -1.94557
10.1796 1.07452 -1.95136
9.43643 1.50284 -1.88995
9.5616 1.49704 -1.84799
9.42601 1.48602 -1.85551
9.59602 1.40714 -1.8839
9.61305 1.35349 -1.8783
9.75465 1.34879 -1.84145
9.30363 1.46039 -1.88719
9.64433 1.20889 -1.89742
9.28474 1.47266 -1.85833
9.7397 1.29434 -1.81202
9.28488 1.45026 -1.83997
9.88124 1.27118 -1.7728
10.1099 1.07288 -1.80399
9.40179 1.44629 -1.79639
9.60799 1.24753 -1.8334
10.1058 1.06058 -1.79581
9.2612 1.43265 -1.7865
9.40233 1.38333 -1.79221
9.57269 1.30032 -1.77879
10.0998 1.03348 -1.75984
9.69942 1.27689 -1.71504
9.53929 1.34445 -1.70683
9.54695 1.29913 -1.68681
9.38792 1.33542 -1.70648
9.70708 1.20346 -1.69814
9.40251 1.30371 -1.6935
9.50903 1.3389 -1.65537
9.71227 1.14841 -1.67894
9.36755 1.34024 -1.6658
9.39273 1.24966 -1.68176
9.52901 1.19412 -1.6346
9.24857 1.20364 -1.65198
9.35677 1.25671 -1.60891
9.74457 0.927856 -1.64086
9.09943 1.28641 -1.65913
9.3642 1.21671 -1.60979
9.09378 1.24976 -1.64809
9.25035 1.18378 -1.6136
9.21379 1.17444 -1.6077
9.78087 0.688446 -1.63626
9.21429 1.16568 -1.5855
9.20723 1.16653 -1.57022
9.9091 0.189606 -1.63946
9.94872 0.0127258 -1.64058
9.93762 0.0204163 -1.62193
9.78409 -0.0699158 -1.64655
9.7695 -0.091156 -1.60912
9.76476 -0.115021 -1.5906
9.60695 -0.229431 -1.60533
9.58235 -0.264557 -1.54489
9.56502 -0.307953 -1.497
9.5712 -0.405396 -1.47851
9.35417 -0.437134 -1.41574
9.33304 -0.424347 -1.39783
9.32442 -0.44339 -1.35704
9.31783 -0.466888 -1.33873
9.77827 1.45047 -1.93977
7.32289 -0.663483 -1.20635
7.23738 -0.266205 -1.9556
8.47353 0.355499 -1.27367
7.53638 -0.497528 -1.1916
8.19722 0.557526 -1.88847
6.88802 -0.538483 -2.47939
6.65912 -1.09213 -1.71597
7.87694 0.184662 -1.7042
7.0174 -1.74759 -2.11446
9.41005 -0.549896 -1.87314
7.39677 -0.203888 -1.69107
7.59364 0.0300598 -2.03786
8.08122 -1.34662 -1.7413
8.82684 1.0014 -1.62845
8.14996 0.489288 -1.99153
7.04863 -0.760193 -1.45262
7.45253 -0.14859 -1.9474
8.66513 -1.13803 -1.92255
6.94016 -0.550171 -2.09536
6.67841 -0.852234 -2.18948
6.84438 -1.46136 -1.70645
8.31061 0.706177 -1.45061
8.69528 1.03094 -1.85032
8.4431 -0.818481 -1.57326
8.28954 -0.694946 -1.63914
7.08125 -0.396942 -2.44343
8.14952 0.500366 -1.79572
9.43385 1.52829 -2.24112
9.09718 1.39014 -2.38675
9.97859 1.35074 -2.25795
9.33922 1.49643 -2.24604
8.99489 1.29492 -2.3955
9.18221 1.44351 -2.24883
9.54112 1.50143 -2.14636
9.94635 1.32544 -2.17057
8.97658 1.28055 -2.34671
9.1577 1.43433 -2.20271
9.98972 1.24832 -2.19442
9.26009 1.49869 -2.13346
9.39059 1.50839 -2.11071
9.83833 1.45691 -2.06052
8.8484 1.2027 -2.3955
9.07191 1.33994 -2.25816
10.3546 0.923615 -2.30327
8.8792 1.18491 -2.39368
9.14656 1.42722 -2.1503
9.24771 1.48798 -2.10109
9.62526 1.54227 -2.00706
8.94875 1.24329 -2.29551
9.37216 1.50241 -2.0647
10.3792 0.860046 -2.29704
10.1227 1.20819 -2.09277
8.9424 1.23383 -2.24363
9.23039 1.45456 -2.0471
8.85091 1.17242 -2.31734
9.35602 1.46603 -2.00191
