30.8871 28.9022 -1.47337
30.9743 28.6075 -1.32023
30.96 28.7077 -1.3427
29.659 28.2292 -1.08042
30.5954 28.2742 -1.63015
30.9937 28.7062 -1.39444
30.7647 28.342 -1.50879
30.9451 28.4965 -1.39619
30.7501 28.3439 -1.54811
30.9629 28.5443 -1.37928
31.0001 28.5942 -1.39306
30.8374 28.4007 -1.49611
30.6566 28.2483 -1.64521
30.8067 28.3952 -1.53775
30.9757 28.5447 -1.40897
30.6797 28.2402 -1.65283
30.9572 28.4929 -1.44384
30.9837 28.536 -1.44786
31.0134 28.8179 -1.47806
30.7343 28.292 -1.64893
30.6866 28.243 -1.69736
30.9809 28.8836 -1.60205
30.963 28.4856 -1.48868
30.7448 28.2965 -1.69852
31.0005 28.5375 -1.49667
31.0347 28.6115 -1.48738
30.9788 28.5005 -1.49427
30.6979 28.2463 -1.74985
30.8526 28.3971 -1.63941
31.0402 28.6256 -1.50747
30.9746 28.4885 -1.52882
30.9386 28.9611 -1.74049
30.9624 28.5064 -1.5723
31.0144 28.5464 -1.53398
30.8788 29.0427 -1.8561
30.91 28.4543 -1.62447
30.9456 28.54 -1.64795
30.782 28.3079 -1.7417
30.876 28.405 -1.6912
30.8293 28.3601 -1.74992
31.0604 28.641 -1.59627
30.9707 28.521 -1.65388
31.03 28.7803 -1.69457
30.7284 28.2508 -1.83848
30.8945 28.4077 -1.73848
30.937 28.4606 -1.68866
30.701 28.2343 -1.89026
30.7828 28.3064 -1.80481
30.8381 28.3518 -1.79106
30.9749 28.5455 -1.69075
31.0616 28.6537 -1.646
31.0167 28.8066 -1.74946
31.0495 28.5795 -1.64873
30.9005 28.4073 -1.78344
31.0504 28.5879 -1.69547
30.7422 28.2432 -1.95213
30.7998 28.2982 -1.89112
31.0581 28.6747 -1.73452
30.8887 28.4246 -1.83876
30.9486 28.4543 -1.79905
31.0513 28.5971 -1.73986
30.7844 28.2956 -1.94527
30.8929 28.3911 -1.85096
31.0316 28.6085 -1.78089
30.9754 28.4666 -1.84058
31.0063 28.5381 -1.82178
30.9412 28.608 -1.9455
30.8719 28.3581 -1.94211
27.8684 27.2111 -1.56693
30.9109 28.4251 -1.9132
30.9292 28.4127 -1.90538
30.8197 28.3018 -2.00032
30.985 28.4582 -1.89655
30.8799 28.3595 -1.99814
30.7912 28.2412 -2.0549
30.8917 28.3758 -2.06274
29.7623 27.4838 -1.44439
30.9408 28.4396 -2.04149
28.1086 26.9151 -1.5134
29.8899 27.556 -1.64845
29.8665 29.116 -1.42282
28.1956 27.2934 -1.29647
29.0511 26.8401 -1.74393
29.9839 29.0467 -1.34833
30.5623 28.115 -1.63602
29.1884 27.155 -2.03391
29.1439 27.0432 -1.24615
28.45 27.5603 -1.23456
30.5779 28.2272 -1.75975
28.2441 27.2469 -1.28371
28.5107 28.2159 -1.0667
28.501 27.5116 -1.25152
30.8398 28.3997 -1.34878
29.7751 27.5178 -1.3036
28.3859 26.6273 -1.85587
28.1834 27.5196 -1.27456
29.905 27.6084 -1.87407
28.9377 28.3295 -1.64166
29.3275 27.109 -1.45398
30.976 28.5077 -1.45712
29.3384 27.1403 -1.34135
28.7991 26.6937 -1.68301
29.7955 27.6405 -1.10028
28.0888 26.9923 -1.45045
29.7778 28.0164 -1.1822
30.1586 28.1631 -0.73938
30.5849 28.2249 -1.66728
28.2674 28.017 -1.25831
29.8619 29.0999 -1.49011
29.6545 28.3276 -0.620541
28.8975 28.5963 -1.64835
28.5053 27.5239 -1.20007
28.942 26.8116 -1.38853
28.6152 26.8515 -1.42609
28.4403 27.0919 -1.25147
30.3278 27.9566 -1.3766
28.7697 26.6336 -1.69468
29.1329 28.0863 -0.700817
29.8709 28.694 -1.57753
29.741 29.188 -1.6484
28.1826 27.9958 -1.32333
28.4044 26.7602 -1.4092
29.1485 28.7068 -1.69258
29.1875 28.3216 -1.65467
29.0952 27.4933 -1.08245
30.2556 27.9373 -1.24416
29.2499 27.0094 -1.739
29.5806 28.5291 -1.24429
29.0807 28.4499 -1.68007
28.1998 26.7575 -1.91476
30.0874 27.7288 -1.69179
29.6396 27.3831 -1.35033
29.348 28.3597 -1.66449
29.5892 28.1931 -0.626152
28.9745 28.3319 -0.739494
28.4398 26.8349 -1.32425
28.9296 26.7679 -1.45992
30.1482 27.9745 -1.07998
30.8323 28.3728 -1.76471
28.1501 27.3093 -1.30748
29.8301 27.509 -1.69345
28.1439 27.4456 -1.29451
28.5328 26.7382 -1.51033
30.2366 28.6428 -0.627586
30.2985 28.3227 -0.724941
29.3288 28.2354 -0.651386
29.0817 27.6535 -1.2538
29.795 27.6021 -1.14977
29.1528 27.9473 -0.715042
29.4549 27.806 -0.665977
28.8533 28.4542 -0.773994
29.473 28.5878 -0.656445
29.7087 28.003 -0.632145
29.7562 27.4432 -1.69231
29.2102 28.6401 -1.723
30.3305 27.9944 -1.25126
28.93 26.7613 -1.5216
29.358 27.8008 -0.690388
27.9963 27.3833 -1.35956
29.1698 27.1058 -1.16858
29.2786 27.1666 -1.10769
28.3806 28.1062 -1.18625
28.7095 26.6652 -1.37754
29.3463 27.3937 -0.895279
29.713 28.025 -1.26583
30.0827 28.1768 -0.645111
30.6464 28.2347 -1.68589
29.0712 26.8088 -1.9135
29.0878 26.9786 -1.6818
28.6406 27.2612 -1.22179
29.3423 27.0969 -1.64701
29.3409 27.188 -1.24919
30.1986 28.2507 -0.648048
29.0403 26.9357 -1.29128
29.4439 27.253 -1.15034
29.2961 27.288 -0.992664
29.063 26.8299 -1.83763
28.8919 26.7301 -1.89503
29.652 28.3974 -0.624001
30.2067 27.9013 -1.24306
28.4254 28.2309 -1.26411
28.1953 27.794 -1.28666
28.7774 27.4792 -1.12271
29.8289 28.8544 -1.60466
30.0188 27.7444 -1.23937
30.3349 28.6421 -1.22684
30.4093 28.3315 -0.838245
29.0415 28.0018 -0.742844
29.0646 28.0779 -0.714451
29.0452 28.18 -0.707211
29.0914 27.9918 -0.723228
29.0893 28.0451 -0.71365
28.9963 28.2966 -0.730732
28.8393 28.5077 -0.791588
29.1546 28.0528 -0.699074
29.0944 28.2407 -0.70359
28.986 28.4366 -0.735924
29.2003 27.8457 -0.715279
29.2019 27.9304 -0.700935
29.0461 28.3839 -0.71386
29.1514 28.1933 -0.690125
28.9355 28.5461 -0.764687
29.2212 27.4452 -1.11904
29.1534 28.3352 -0.687874
29.2961 27.8828 -0.686371
29.2891 27.9758 -0.672699
29.2494 28.1929 -0.668072
29.1973 28.2953 -0.679291
29.0793 28.475 -0.71563
29.3 28.0432 -0.663551
29.2655 28.1647 -0.661121
29.3385 27.87 -0.674095
29.3384 27.9391 -0.664551
29.3443 28.0396 -0.65884
29.3371 28.1284 -0.649303
29.1177 28.5619 -0.713638
29.257 28.3665 -0.66869
29.1499 28.5397 -0.702545
29.4112 27.8521 -0.664829
29.3841 28.0961 -0.643696
29.1915 28.4928 -0.688663
29.3983 27.747 -0.694717
29.4389 27.836 -0.662224
29.3607 28.2033 -0.646641
29.3414 28.3418 -0.653221
29.2538 28.4736 -0.676449
29.4392 27.7475 -0.68502
29.4388 28.0917 -0.638794
29.3994 28.1826 -0.639053
29.3537 28.3149 -0.648716
29.343 28.4414 -0.65683
29.4879 27.7973 -0.663349
29.493 27.992 -0.639107
29.4955 28.0512 -0.6339
29.7523 29.2582 -0.744442
29.4438 28.2437 -0.635811
29.3984 28.3933 -0.646698
29.5374 27.6446 -0.697216
29.5042 27.9644 -0.642052
29.4968 28.1458 -0.631905
30.987 28.6889 -1.35561
29.5284 27.7179 -0.669865
29.5418 27.947 -0.639477
29.4544 28.3467 -0.638481
29.3995 28.5041 -0.656025
29.5443 28.0422 -0.626293
29.3368 28.6306 -0.682735
29.5488 27.7003 -0.688023
29.5617 28.0186 -0.625938
29.5402 28.1076 -0.628353
29.4928 28.3328 -0.637711
29.4018 28.5941 -0.663025
29.2896 28.7994 -0.717953
28.314 26.6578 -1.64396
29.5943 28.0946 -0.62508
29.6442 27.8313 -0.64666
29.5924 27.9 -0.640373
29.3145 28.8984 -0.71526
29.6025 28.2951 -0.6236
29.4365 28.6844 -0.671284
29.602 27.7478 -0.690121
28.7917 26.6614 -1.54165
29.6426 28.2376 -0.621357
29.5879 28.3481 -0.622105
29.4428 28.7908 -0.68364
29.6176 27.7696 -0.686668
29.6881 27.9504 -0.626133
29.6493 28.243 -0.616879
29.6314 28.3402 -0.619129
29.6037 28.4465 -0.628616
29.7023 28.0348 -0.61898
29.6795 28.2288 -0.614738
29.538 28.7218 -0.65868
29.4075 28.9587 -0.723057
29.4643 28.9082 -0.702564
29.5918 27.6907 -0.739235
29.7476 28.0127 -0.619137
29.7431 28.1815 -0.612419
29.557 28.8459 -0.674667
29.7374 28.287 -0.614307
29.6905 28.4844 -0.621288
29.7966 27.9983 -0.614799
29.4959 29.0306 -0.722324
29.7829 28.0799 -0.622337
29.792 28.1421 -0.612785
28.7401 28.5439 -1.29813
29.5242 28.9928 -0.714111
29.7503 27.8732 -0.686676
29.5882 28.9196 -0.683228
28.7103 28.4589 -1.38874
29.7477 27.8553 -0.693432
29.8584 28.0481 -0.616032
29.8377 28.1299 -0.616928
28.7999 26.8486 -1.28406
29.8503 28.2373 -0.60825
29.5665 29.0916 -0.731712
29.846 28.1955 -0.614952
30.2091 27.9467 -1.14573
29.0627 26.9508 -1.63145
29.6319 29.0288 -0.702961
28.5995 27.3351 -1.23075
29.6713 28.9871 -0.690865
29.8047 27.9336 -0.689014
29.8967 28.1842 -0.612595
28.6944 28.5 -1.44557
29.8051 28.7505 -0.641472
29.7345 28.9003 -0.664993
29.8464 27.9128 -0.699581
29.8944 28.2436 -0.61092
29.9055 28.3549 -0.605766
28.6024 28.3348 -1.59418
29.8965 28.5927 -0.616886
29.9531 28.0852 -0.638279
29.8468 28.8415 -0.650124
29.8685 27.9799 -0.675446
28.7031 28.4003 -1.5331
28.7794 28.5855 -1.44895
29.8481 28.9492 -0.662827
28.6331 28.3485 -1.59602
29.8921 27.9767 -0.703072
29.9856 28.1455 -0.616508
28.7873 28.4628 -1.49849
28.7867 28.5499 -1.49012
29.9902 28.2126 -0.608013
29.9938 28.3873 -0.609653
28.7715 28.5886 -1.50459
29.8793 27.902 -0.713993
28.7401 28.6152 -1.54153
30.0052 28.1291 -0.633671
30.0375 28.1915 -0.60984
29.9865 28.5979 -0.62146
29.8621 29.0661 -0.687485
30.0457 28.2997 -0.614212
29.8884 29.0298 -0.678101
28.7787 28.4814 -1.54526
28.8618 28.54 -1.48097
30.0466 28.2647 -0.609016
29.9115 27.9761 -0.734085
30.0255 28.5681 -0.620495
30.0565 28.5539 -0.618843
30.0437 28.6459 -0.62302
30.0307 28.1259 -0.653072
29.9261 27.972 -0.752937
29.86 28.1041 -0.79073
29.9655 29.1092 -0.689568
29.797 28.1633 -0.857574
30.1043 28.6092 -0.62085
29.8888 29.3667 -0.770565
29.9382 27.9496 -0.749199
30.0479 28.1284 -0.693398
28.6868 28.3419 -1.73211
29.8556 27.881 -0.83139
29.8017 28.1755 -0.897072
29.8912 27.8624 -0.853939
29.9532 27.9522 -0.786526
29.8335 28.1552 -0.889
29.8698 27.8706 -0.846451
29.1651 28.8233 -1.38763
29.211 28.789 -1.36672
29.9422 27.9133 -0.848869
30.0939 28.1035 -0.700645
30.1115 28.1665 -0.67654
28.9059 28.4517 -1.64499
30.1075 28.1847 -0.687511
29.9513 27.9865 -0.832069
29.2886 28.7403 -1.35503
30.2102 28.4293 -0.621956
28.9429 28.4426 -1.65273
29.9023 27.8612 -0.887093
30.0991 28.1109 -0.726536
29.884 28.1304 -0.896984
30.2586 28.3909 -0.619316
28.9894 28.296 -1.63215
28.9813 28.4273 -1.6563
30.1015 28.1219 -0.757614
29.8756 28.065 -0.94429
30.2932 28.5556 -0.618599
30.2514 28.9488 -0.661804
30.1868 29.1724 -0.712116
29.9282 27.8608 -0.90398
30.2143 28.2765 -0.688419
29.0816 28.1536 -1.6104
30.1231 28.1127 -0.767376
29.159 28.1105 -1.56443
29.0943 28.2933 -1.63755
29.486 28.4967 -1.30896
29.5613 28.5411 -1.24634
30.1212 28.1181 -0.778175
30.1849 28.1521 -0.753433
30.3368 28.5199 -0.62009
29.0964 28.2609 -1.64037
29.8468 28.1031 -1.01112
30.0718 28.1694 -0.830578
30.2446 28.2639 -0.693649
30.2773 28.3161 -0.679558
29.1243 28.2437 -1.61771
30.1082 28.1411 -0.815613
28.7291 28.2665 -1.95624
29.2352 28.1779 -1.55079
30.3902 28.4738 -0.618073
30.0066 27.9103 -0.934155
30.3801 28.82 -0.653641
29.5074 28.5105 -1.36782
29.255 28.195 -1.58924
29.5204 28.5091 -1.38409
30.2503 28.2072 -0.783783
29.8461 27.6433 -1.09752
30.4418 28.5335 -0.645374
29.9873 27.8621 -1.00066
29.975 27.9447 -0.992802
30.1672 28.2034 -0.848629
29.9427 27.8101 -1.04371
30.357 28.3719 -0.698341
29.3033 28.9758 -1.66204
30.2736 28.1891 -0.778675
30.3401 28.3047 -0.751667
29.9003 27.7429 -1.09332
30.249 28.2252 -0.822796
30.2621 28.2157 -0.821617
29.8503 27.6481 -1.14505
29.2681 28.9024 -1.74202
30.1598 27.8463 -1.28942
30.4262 28.3985 -0.707581
30.503 28.7172 -0.676888
29.2789 28.898 -1.74738
30.2841 28.2101 -0.843704
29.8772 27.6428 -1.15531
30.5214 28.5786 -0.654186
30.4361 28.4091 -0.742386
29.9556 27.8195 -1.09037
29.2695 28.9187 -1.78757
29.486 28.8416 -1.60867
30.5411 28.6749 -0.668922
29.1614 28.6388 -1.87117
30.3308 28.2538 -0.818439
29.5295 28.3481 -1.55028
29.5395 28.8066 -1.60444
30.2873 28.2212 -0.874626
29.9564 27.7502 -1.13281
30.5923 28.6361 -0.677143
29.2522 28.8323 -1.86715
29.7892 29.2025 -1.43301
30.4388 28.4245 -0.774906
29.8941 27.6405 -1.20021
30.4478 28.418 -0.77676
29.268 28.8262 -1.87542
30.4708 28.3922 -0.763981
29.9466 27.6892 -1.19386
29.6054 28.7606 -1.59249
29.9825 27.7474 -1.1514
29.6506 28.6082 -1.56014
29.6373 28.7426 -1.59782
30.135 27.9619 -1.06318
29.8544 29.1419 -1.43399
30.0366 27.7974 -1.1498
29.6484 28.8622 -1.61843
30.0045 27.7452 -1.18795
29.6875 28.5815 -1.55795
29.6946 28.7043 -1.59241
30.4286 28.2967 -0.857914
30.0983 28.9441 -1.23752
28.7466 27.1444 -1.19993
30.0961 27.8464 -1.1409
29.6806 29.0973 -1.65887
29.9532 29.0466 -1.40495
30.1884 28.0227 -1.06559
29.9037 27.6392 -1.23841
30.1346 27.9043 -1.10802
29.9641 27.6842 -1.22961
30.1782 28.0278 -1.08694
29.7336 28.6849 -1.58179
30.2088 28.0079 -1.06201
30.394 28.2609 -0.935867
29.9787 27.6935 -1.25076
29.4632 27.2764 -1.27979
30.6272 28.5325 -0.7584
29.7425 28.8938 -1.62897
30.2952 28.7222 -1.10876
29.7927 28.6339 -1.5722
29.7904 28.7612 -1.60172
29.7793 28.9019 -1.63473
29.7881 29.0413 -1.65929
29.9457 27.6466 -1.29741
30.5799 28.4229 -0.814358
30.2394 27.9965 -1.09785
29.419 28.2603 -0.637367
30.3047 28.1005 -1.04452
30.3552 28.6507 -1.06807
29.7968 28.9969 -1.64985
29.8872 29.043 -1.57908
30.4056 28.5889 -1.0305
29.8891 28.8104 -1.58769
29.9912 28.943 -1.49615
30.0906 27.7993 -1.2428
30.2612 28.041 -1.07933
29.8885 28.797 -1.56805
30.4431 28.5872 -1.0456
30.4412 28.5615 -1.0346
30.0521 27.7505 -1.28799
30.0387 28.8911 -1.48207
30.7224 28.701 -0.810432
30.3859 28.1469 -1.04639
30.4004 28.2107 -1.03764
30.0046 27.6921 -1.34494
30.2616 27.9945 -1.1396
30.156 27.8494 -1.24139
30.4487 28.5836 -1.08792
30.1037 27.7995 -1.28893
30.2413 27.9435 -1.19604
30.4429 28.2005 -1.05723
30.3111 28.669 -1.24232
30.2784 27.996 -1.155
30.4082 28.1455 -1.08923
30.5118 28.5116 -1.03119
29.9767 27.6451 -1.39012
30.4914 28.247 -1.04807
30.3009 27.9941 -1.20082
30.7324 28.5404 -0.905415
30.3519 28.0454 -1.19322
30.5892 28.3487 -1.01088
30.0332 27.6946 -1.43256
30.185 27.8512 -1.30279
30.6709 28.4295 -0.968609
30.3093 27.9902 -1.23795
29.9946 27.6409 -1.49444
30.4972 28.1938 -1.13542
28.2557 27.1462 -1.30228
30.7148 28.4944 -0.975765
30.0314 27.6962 -1.4946
30.2928 27.9538 -1.29865
30.3627 28.0481 -1.23887
30.1962 27.8473 -1.40112
30.3505 28.0002 -1.29642
30.4154 28.0959 -1.22634
30.0255 27.6277 -1.50422
30.7735 28.9781 -1.09978
30.0945 27.7469 -1.49373
30.3 27.9497 -1.34931
30.0472 27.7015 -1.54364
30.2514 27.895 -1.39763
30.4471 28.1072 -1.25073
30.1969 27.8468 -1.44491
30.0063 27.6524 -1.5984
30.734 28.4232 -1.0582
30.0731 27.6941 -1.5431
30.8412 28.7469 -1.04969
30.3478 27.9931 -1.34852
30.1038 27.7432 -1.53952
30.8268 28.7713 -1.063
30.2943 27.9409 -1.39542
30.4443 28.0896 -1.30625
30.3984 28.0415 -1.35087
30.546 28.1908 -1.24417
30.0734 27.7071 -1.57417
30.2061 27.8541 -1.49329
30.0004 27.6475 -1.64761
30.1359 27.7497 -1.54243
30.8354 28.5433 -1.04589
30.1605 27.7968 -1.53524
30.3477 27.9832 -1.39392
30.0255 27.6501 -1.6554
30.3023 27.9377 -1.44507
30.5016 28.1332 -1.29733
30.6378 28.2854 -1.20111
30.1928 27.8 -1.53889
30.4557 28.0875 -1.34925
30.0477 27.692 -1.64269
30.3706 28.0089 -1.40956
30.7717 28.4225 -1.11768
30.0755 27.7121 -1.65568
30.2872 27.8971 -1.51129
30.2457 27.8559 -1.50553
30.5468 28.1787 -1.29224
30.1695 27.8262 -1.60364
30.0277 27.6612 -1.7466
30.3373 27.9548 -1.50661
30.5328 28.1472 -1.34426
30.2916 27.8984 -1.54154
30.1854 27.8122 -1.60755
30.4382 28.051 -1.44698
30.4837 28.0996 -1.39996
30.1331 27.7692 -1.66069
30.2331 27.8703 -1.58932
30.3912 28.0099 -1.49902
30.1402 27.7741 -1.69842
30.2398 27.8576 -1.59612
30.5482 28.1484 -1.39217
30.6831 28.2823 -1.29386
30.1942 27.8205 -1.65272
30.3705 27.95 -1.51487
30.4949 28.1053 -1.44378
30.3484 27.9568 -1.5435
30.4075 28.0246 -1.54645
30.7848 28.386 -1.25579
30.0951 27.7357 -1.79158
30.1511 27.7848 -1.74422
30.2054 27.8251 -1.69741
30.3053 27.9237 -1.60217
30.3556 27.9726 -1.56432
30.4532 28.0714 -1.49955
30.6003 28.1938 -1.39569
29.9989 27.6931 -1.87191
30.3632 27.9777 -1.60182
30.7064 28.2896 -1.34091
30.3105 27.9257 -1.62368
30.5565 28.1475 -1.44254
30.3724 27.9666 -1.58239
30.5008 28.0969 -1.49408
30.1021 27.7475 -1.83228
30.1563 27.7885 -1.78808
30.2104 27.8326 -1.74284
30.2654 27.8812 -1.69663
30.3279 27.9262 -1.65531
30.3982 28.0454 -1.59656
30.4027 28.6302 -1.14359
30.056 27.7572 -1.88533
30.4779 28.0612 -1.53286
30.5485 28.13 -1.4988
30.6306 28.2052 -1.44747
30.5846 28.1596 -1.49355
30.1462 27.7927 -1.83833
30.9432 28.7063 -1.3072
30.2827 27.8948 -1.74447
30.6884 28.2563 -1.44656
30.3918 27.9956 -1.69772
30.4873 28.0801 -1.60078
29.6661 27.744 -0.79792
30.2878 27.9046 -1.79082
30.3442 27.9451 -1.74017
30.16 27.8931 -1.91866
30.5944 28.1581 -1.54595
30.6444 28.2021 -1.49445
30.5028 28.0901 -1.6478
30.3933 27.9947 -1.75082
30.1489 28.8069 -1.33717
30.6574 28.2185 -1.53451
30.5056 28.0881 -1.69592
30.5649 28.137 -1.64182
30.7551 28.3145 -1.47677
30.3348 27.948 -1.82598
30.453 28.0468 -1.74623
30.6303 28.2732 -1.62055
30.7279 28.3694 -1.54858
30.5821 28.2389 -1.70019
30.4494 28.0464 -1.79274
28.9584 26.8549 -1.59007
30.6081 28.2138 -1.68536
29.1174 27.9197 -0.719296
28.2935 26.7392 -1.53944
30.5704 28.1566 -1.7266
30.6385 28.2082 -1.6989
30.4394 28.0524 -1.83289
30.4951 28.0877 -1.80049
30.5134 28.2397 -1.85116
30.8498 28.4782 -1.56553
31.0148 28.5935 -1.4327
30.5206 28.1162 -1.79786
30.8648 28.4574 -1.56482
30.9412 28.4498 -1.48587
30.6377 28.1935 -1.75667
30.7347 28.3288 -1.7095
30.7847 28.3728 -1.66187
31.045 28.7704 -1.56633
30.649 28.2011 -1.798
30.7677 28.9189 -2.008
30.7464 28.2759 -1.83916
30.8923 28.4246 -1.73961
31.0347 28.7888 -1.77576
30.9482 28.6517 -1.82723
29.2424 27.9524 -0.695507
30.9611 28.4778 -1.74448
28.8589 28.6357 -1.28607
30.7533 28.3004 -1.94537
30.866 28.3868 -1.84879
30.9439 28.4422 -1.84442
30.8422 28.3358 -1.94233
28.7113 26.617 -1.548
30.8579 28.3537 -1.98915
30.8042 28.2957 -2.04685
30.9822 28.4377 -1.93462
30.9828 28.4555 -1.97314
30.9662 28.4937 -2.04731
29.7868 29.1885 -1.4966
29.8299 27.5057 -1.6432
29.4158 28.7025 -1.22746
29.4529 27.1927 -1.74344
29.7587 29.1908 -1.53652
30.4261 28.0175 -1.588
28.8968 26.7107 -1.8381
28.6645 26.5686 -1.8389
29.6864 29.2506 -1.4352
28.1664 27.0433 -1.37014
29.4917 27.2455 -1.44472
29.6987 27.3921 -1.78776
29.0035 27.6256 -1.11915
28.3286 27.6504 -1.27066
27.7038 27.4619 -1.73309
28.9053 26.8825 -1.27793
29.5942 28.2336 -1.16357
30.5094 28.1263 -1.34452
28.1579 26.8105 -1.91081
29.2876 27.0486 -1.74011
28.6126 28.3828 -0.932007
29.5163 28.088 -1.4827
30.4599 28.5446 -1.13058
28.3258 26.7251 -1.52173
29.665 28.6189 -0.633106
28.975 26.7656 -1.88531
28.4965 28.1077 -1.20518
29.1682 26.9427 -1.75023
29.8114 28.0159 -1.07133
30.2755 27.9106 -1.41745
29.5623 27.7563 -0.66515
27.8922 27.109 -1.7046
28.1685 26.8096 -1.65645
28.8079 28.5528 -1.34381
29.524 29.1749 -1.54892
29.5327 27.4649 -1.17248
28.3483 26.6419 -1.60996
29.812 29.2104 -1.35072
28.2626 27.3008 -1.26331
29.2436 27.0561 -1.34811
29.7919 27.478 -1.74852
29.1402 26.8609 -1.94775
29.1968 28.3545 -0.673492
28.4913 26.5935 -1.80495
28.1388 26.8982 -1.51434
29.8649 27.9147 -0.760632
28.0342 27.0188 -1.49728
30.0602 28.9953 -1.24839
28.0372 27.846 -1.3246
28.4537 26.8892 -1.29964
30.4289 28.1052 -1.19791
29.3856 27.1448 -1.54812
28.6342 27.3153 -1.239
30.7115 28.3313 -1.55671
29.434 27.6156 -1.19902
29.4919 27.1228 -1.0032
29.8638 27.5639 -1.62395
29.3204 27.194 -1.20997
29.0938 27.0909 -1.10361
27.8584 27.3615 -1.46432
30.3776 28.5806 -1.21814
29.3376 27.1152 -1.4885
29.2745 27.0333 -1.61433
29.9254 28.0257 -0.65918
29.2095 28.2958 -1.65022
29.46 27.3326 -1.17403
30.7675 28.6242 -0.876598
28.4444 27.4607 -1.23662
28.0915 26.9019 -1.56195
29.8368 28.4317 -0.613472
28.0756 26.9798 -1.47899
30.6194 28.3651 -1.01225
29.7172 27.8645 -1.25314
28.6382 26.5715 -1.80052
29.474 27.2096 -1.75051
28.7475 28.4495 -0.833206
28.9663 28.548 -1.65341
29.0876 26.8413 -1.84473
30.6839 28.2104 -1.89604
30.1761 28.7766 -1.33891
29.3262 27.274 -1.00192
28.4075 28.182 -1.23777
28.0323 27.5407 -1.33376
27.979 27.6429 -1.35249
28.0677 27.5176 -1.31885
29.5941 28.0923 -1.39644
28.101 27.4845 -1.30899
28.1081 27.7028 -1.29403
28.1255 27.589 -1.29347
28.1816 27.4377 -1.28209
28.181 27.5693 -1.27326
28.1506 27.6905 -1.2775
28.1459 27.7892 -1.28152
28.2534 27.4428 -1.25199
28.1811 27.7812 -1.26764
28.113 27.9342 -1.3023
28.735 26.7238 -2.00481
28.6606 28.396 -0.892357
28.2343 27.6477 -1.25303
28.4308 28.2608 -1.06427
28.5097 28.3096 -1.01184
28.2939 27.5378 -1.23949
28.1328 27.9226 -1.30028
28.1808 28.0105 -1.28504
28.7629 28.4157 -0.83202
28.3481 27.5011 -1.23884
28.3051 27.6168 -1.24297
28.1852 27.8876 -1.28913
28.8821 28.2903 -0.774826
28.2459 27.7519 -1.28985
28.2219 28.0975 -1.26424
28.2898 28.1545 -1.21567
28.6004 28.2462 -0.993896
28.4009 27.3913 -1.20979
28.2854 27.8422 -1.24708
28.3122 27.9301 -1.22846
28.9471 28.1376 -0.761375
28.4096 27.3636 -1.21134
28.5055 28.2344 -1.10197
28.9403 28.4858 -0.753498
28.3603 27.6976 -1.24096
28.5922 28.2946 -1.04
28.3858 27.5821 -1.25418
28.4552 27.7388 -1.17634
29.048 28.2648 -0.716671
28.4408 28.1926 -1.19249
28.4574 27.3614 -1.24388
28.3733 28.1311 -1.23876
29.1438 28.2901 -0.688705
28.4822 27.352 -1.24214
29.1356 28.4016 -0.694946
28.4783 27.5438 -1.23013
28.4346 28.192 -1.23359
29.1609 27.8701 -0.713974
28.5462 27.4105 -1.21377
29.1714 27.8703 -0.728897
30.7791 28.5386 -0.958073
29.1074 28.7279 -0.744366
29.2324 28.4455 -0.675732
28.6422 27.2763 -1.20285
29.2924 28.286 -0.659142
28.6589 27.3576 -1.16201
29.2606 28.4164 -0.667995
29.2174 28.5957 -0.693768
29.249 27.8116 -0.711826
29.2889 28.3873 -0.660557
29.3063 27.9453 -0.670425
29.3092 27.8542 -0.686886
29.3429 28.0968 -0.654327
29.9591 28.9509 -1.64322
29.3119 28.4916 -0.665108
29.3561 28.0031 -0.659477
29.3118 27.7621 -0.711765
29.3415 27.7415 -0.708542
29.3981 28.1512 -0.643707
29.444 28.0406 -0.64164
29.4412 27.9422 -0.654385
28.5033 28.3622 -1.39476
29.4865 28.1918 -0.631248
28.6431 28.1212 -1.29557
28.8967 27.2462 -1.13844
29.4904 28.7346 -0.671906
29.4224 28.9734 -0.722202
29.3565 27.5904 -0.773285
29.4116 27.6398 -0.727257
29.5605 28.3546 -0.623634
29.517 28.6891 -0.661118
29.3428 27.5418 -0.797337
29.2866 27.49 -0.848545
28.9468 27.2508 -1.13331
29.3027 27.4081 -0.854523
29.4557 27.6028 -0.735416
29.2475 27.3817 -0.901951
29.6373 28.2747 -0.614334
29.1471 27.3456 -0.991539
29.6411 28.0862 -0.628235
29.2865 27.3479 -0.903736
29.6514 27.9462 -0.632271
29.0042 27.2101 -1.12824
29.2691 27.3551 -0.90958
29.6877 28.3556 -0.621353
29.5158 27.6427 -0.730503
29.1505 27.2024 -1.01981
29.5975 29.083 -0.715282
29.1023 27.1387 -1.08862
29.2067 27.2501 -0.985958
29.4127 27.5004 -0.839111
29.1544 27.1954 -1.0386
29.3107 27.3534 -0.938492
29.6921 27.8502 -0.652679
29.3179 27.3114 -1.05153
29.7427 28.1474 -0.611198
29.2356 27.2421 -1.00721
29.7624 28.0558 -0.621483
29.3192 27.5992 -0.961708
29.2576 27.6622 -1.03204
29.5558 27.6492 -0.781898
29.7674 29.0101 -0.685993
29.7937 28.9672 -0.675865
29.8566 28.543 -0.616692
29.8375 28.1007 -0.617786
29.2055 27.4512 -1.11167
28.6508 28.38 -1.65406
29.6253 27.6689 -0.764194
29.6855 27.795 -0.745987
29.1805 27.1486 -1.10409
29.2794 27.2372 -1.05054
29.8456 28.0874 -0.620735
29.8988 28.6331 -0.618645
29.8772 28.0456 -0.615433
29.9372 28.5814 -0.613026
29.6797 27.7166 -0.762398
29.7479 27.8333 -0.735958
29.8907 28.1431 -0.622311
29.9514 28.9035 -0.654469
29.6326 27.7016 -0.846889
29.7261 27.7645 -0.748447
29.8079 27.8613 -0.705582
29.8401 27.9395 -0.698059
29.9335 28.0992 -0.61338
28.7451 26.6913 -1.95623
29.3178 27.3022 -1.0872
28.7303 28.4809 -1.71198
28.7495 28.4677 -1.71022
29.6886 27.7438 -0.832436
29.2119 27.1348 -1.18296
29.2934 27.1642 -1.13674
30.0175 28.9952 -0.669094
29.2287 27.4703 -1.21507
29.2841 27.345 -1.17966
29.2274 27.4796 -1.24382
29.7911 27.8298 -0.795689
29.1931 27.0576 -1.24735
28.9426 28.3083 -1.63177
29.8944 27.9451 -0.741203
29.3513 27.3014 -1.14674
29.2289 27.0617 -1.25028
29.4579 27.14 -1.03615
29.7555 27.8987 -0.869274
29.847 27.88 -0.798241
29.2617 27.1289 -1.23434
30.1452 28.9911 -0.673851
29.7997 27.8489 -0.844769
29.4817 27.1133 -1.04119
29.9772 28.1197 -0.71447
30.1352 28.3349 -0.607689
29.0051 28.2629 -1.62202
30.1522 28.6029 -0.622894
28.9836 28.414 -1.65481
29.028 28.6372 -1.64548
29.8943 27.9266 -0.787849
29.9752 28.0202 -0.724304
29.0292 28.2459 -1.61947
29.4441 27.3427 -1.14263
29.0641 28.2177 -1.60745
29.0304 28.5073 -1.6813
29.8833 27.8564 -0.812233
30.0283 28.1865 -0.72443
30.1826 28.4173 -0.618748
29.0641 28.3529 -1.64266
30.235 29.05 -0.684937
29.232 28.6859 -1.54642
29.5064 27.1228 -1.06604
29.3018 27.1303 -1.29166
29.113 28.454 -1.66693
29.3434 27.1818 -1.28786
29.1611 28.1442 -1.58653
29.1361 28.4332 -1.65822
29.9704 27.9777 -0.812984
29.5437 27.4516 -1.14608
29.3978 27.2361 -1.24729
29.4889 27.3402 -1.19444
29.9819 27.9564 -0.807877
29.5206 29.1096 -1.45304
29.1969 28.3875 -1.65557
29.9754 27.993 -0.844807
29.4529 27.2779 -1.2388
29.5285 29.128 -1.48999
29.5943 29.1877 -1.44212
29.6015 27.4796 -1.11081
30.3408 29.0928 -0.70089
29.6545 28.1588 -1.1835
29.5456 27.3777 -1.19125
29.7171 29.3127 -1.34188
29.3669 29.0725 -1.64298
29.6778 29.2294 -1.39673
29.7264 29.3077 -1.34868
29.8503 27.8751 -0.973309
29.2815 27.0634 -1.38912
29.3906 29.0441 -1.63311
29.4657 29.0874 -1.57045
29.581 27.4335 -1.16148
29.6559 27.5378 -1.10941
29.4528 29.1309 -1.61622
29.6111 29.1979 -1.47918
29.9774 27.9215 -0.899181
29.444 28.9743 -1.6021
29.3436 27.1358 -1.39013
29.4695 29.1204 -1.62469
29.6309 27.4874 -1.15482
29.9034 29.1894 -1.25247
29.4856 29.1119 -1.63519
29.5491 29.1702 -1.57788
29.8869 29.2206 -1.26488
29.5724 29.1377 -1.56564
29.6284 28.1345 -1.2973
29.2984 27.0652 -1.44592
29.9987 27.9217 -0.935078
29.5098 28.9076 -1.59399
29.7424 29.2081 -1.4596
29.6925 27.5335 -1.1431
29.7158 27.6797 -1.14377
29.5641 28.1084 -1.39647
29.5387 27.3428 -1.25006
29.7975 29.2298 -1.39297
29.6554 28.1074 -1.29088
29.9316 29.1767 -1.27656
29.7591 27.6363 -1.11462
29.6769 28.081 -1.29134
29.5678 29.0165 -1.61295
29.596 29.1568 -1.62595
29.5453 27.328 -1.29626
29.5444 28.1101 -1.4577
29.7677 29.1928 -1.47546
29.7956 27.6355 -1.12555
29.7052 28.0488 -1.27563
29.4462 27.2295 -1.39455
29.9932 29.0919 -1.26526
30.0842 29.0406 -1.14781
29.2904 27.0617 -1.49931
29.7669 27.8617 -1.2087
30.4861 28.6483 -0.6763
29.8682 27.8272 -1.10046
29.6541 29.1055 -1.63686
29.6763 29.2433 -1.63041
29.8118 29.1585 -1.4937
29.6373 27.4061 -1.24827
29.9113 29.1082 -1.36613
30.1391 28.9312 -1.10635
30.257 28.7857 -0.947868
29.8551 27.7438 -1.10489
29.9093 27.7757 -1.06458
29.406 27.1758 -1.43529
29.9422 29.0891 -1.34756
30.0256 29.051 -1.2636
29.731 27.5174 -1.19952
30.2441 28.8639 -1.00859
29.3562 27.1293 -1.49928
29.7459 27.5304 -1.19479
30.1582 28.9146 -1.11441
29.9091 27.7771 -1.08883
29.6553 28.9503 -1.64168
29.5098 27.2798 -1.39996
29.8292 29.1522 -1.50995
29.948 29.0694 -1.37066
29.309 27.0739 -1.53526
29.4616 27.2323 -1.44527
29.7448 29.166 -1.62448
29.7893 27.5601 -1.20317
30.261 28.862 -1.02903
29.6975 28.8999 -1.62867
29.8813 29.0791 -1.49109
30.0041 28.9994 -1.35596
29.8276 27.6084 -1.16894
29.9754 27.8299 -1.08942
29.3589 27.1292 -1.54998
29.5641 27.3261 -1.37123
29.6151 27.3747 -1.34524
30.3532 28.4186 -0.854088
30.2373 29.2504 -1.20033
30.2882 28.8552 -1.05847
29.8455 27.5988 -1.20417
29.9442 29.0023 -1.48275
29.3257 27.0842 -1.59635
30.3157 28.7968 -1.03698
29.7726 28.6417 -1.56635
29.6465 27.3851 -1.39305
30.1636 28.847 -1.22329
29.7422 27.4895 -1.28545
30.3454 28.7211 -1.0013
30.28 29.1917 -1.20104
29.3665 27.1349 -1.58541
30.0806 27.925 -1.06622
29.805 28.9585 -1.64754
30.1701 28.8463 -1.23148
29.8449 29.0868 -1.66117
29.9733 28.9727 -1.48638
29.74 27.4791 -1.33892
30.1969 28.8061 -1.22317
29.7646 27.5205 -1.29075
29.3919 27.1408 -1.60352
29.5432 27.2859 -1.49539
29.8455 28.9415 -1.65022
30.3779 28.6835 -1.00711
30.42 28.756 -0.977413
29.8582 29.0819 -1.67353
30.3788 28.4794 -0.952873
30.4512 28.6988 -0.96479
30.0779 27.846 -1.1021
29.4885 27.2337 -1.5464
29.6949 27.4246 -1.39546
30.1275 28.8313 -1.33635
30.2954 28.765 -1.14106
29.8312 27.5575 -1.29584
30.4019 28.644 -0.999802
30.3182 28.7105 -1.11437
30.5691 28.4869 -0.783283
29.6075 27.3309 -1.4921
29.9089 29.0125 -1.65346
30.2488 28.7481 -1.22911
29.3885 27.1405 -1.65564
29.9277 28.9917 -1.65274
30.4235 28.6201 -1.00484
29.3448 27.0919 -1.69724
29.4987 27.2375 -1.59298
30.0642 28.8627 -1.47592
29.747 27.4781 -1.39377
29.9701 27.7031 -1.21606
30.6719 28.6229 -0.756844
29.4925 27.1967 -1.59364
30.2479 28.0816 -1.05945
30.3498 28.479 -1.06711
30.4419 28.5988 -1.00804
30.5022 28.6429 -0.97934
30.2055 28.7458 -1.3432
30.0195 27.7537 -1.20617
29.9799 28.924 -1.63724
29.6525 27.3817 -1.50448
30.1245 28.7744 -1.45
30.3089 28.1299 -1.06299
30.5392 28.6043 -0.991615
29.6211 27.3384 -1.55642
30.2404 28.7041 -1.34221
30.0815 27.7954 -1.2077
29.6626 27.3854 -1.54221
29.8545 27.5477 -1.3944
30.402 28.4431 -1.09853
29.5228 27.2415 -1.65527
29.5661 27.3018 -1.63863
30.2796 28.6354 -1.31544
29.7831 27.4829 -1.49899
30.3602 28.5984 -1.21425
29.831 27.5327 -1.44333
30.4359 28.586 -1.1418
29.8904 27.5847 -1.39488
30.3433 28.1022 -1.06909
29.6777 27.384 -1.56365
30.5314 28.4975 -1.02645
29.9262 27.6147 -1.3907
29.3513 27.1045 -1.84194
29.4088 27.1602 -1.80478
30.2468 27.9509 -1.14739
29.5647 27.31 -1.67267
30.4687 28.2995 -1.03009
30.6073 28.4541 -0.940964
30.7502 28.6214 -0.852989
29.8426 27.5375 -1.49243
30.4939 28.442 -1.06886
29.8979 27.5869 -1.44092
29.3889 27.1418 -1.84007
29.539 27.2572 -1.74784
30.3759 28.0977 -1.11092
29.7437 27.4463 -1.58723
29.7937 27.4931 -1.5481
29.9477 27.6278 -1.44499
29.5317 27.2625 -1.79034
29.596 27.311 -1.73956
29.656 27.3539 -1.69247
29.8538 27.5436 -1.54549
30.0089 27.6815 -1.45041
29.8223 27.4865 -1.55198
30.1095 27.7732 -1.39516
29.5401 27.266 -1.83538
29.6551 27.3551 -1.74833
29.807 27.5047 -1.64829
30.0117 27.687 -1.47634
29.9281 27.5932 -1.55661
29.6028 27.3229 -1.84254
29.9407 27.604 -1.60101
29.5958 27.3345 -1.87758
30.2653 27.9215 -1.35695
30.3212 27.9612 -1.35414
30.8207 28.549 -1.01777
30.5157 28.1705 -1.24929
30.8775 28.7033 -1.06994
29.8865 27.5469 -1.74514
29.9404 27.5977 -1.69592
29.8027 27.4908 -1.83927
29.9065 27.5742 -1.75013
30.8888 28.7158 -1.09299
29.9579 27.6216 -1.71069
30.4076 28.0308 -1.39477
29.9117 27.5846 -1.79343
30.6959 28.3146 -1.20602
30.8295 28.4889 -1.1156
30.8736 28.5816 -1.10866
30.6094 28.2277 -1.29419
29.8381 27.5684 -1.89178
29.9971 27.6439 -1.745
30.0325 27.6779 -1.74588
30.8885 28.5636 -1.11237
29.6214 28.088 -1.38295
28.5237 26.8155 -1.41441
30.302 27.9068 -1.59731
30.9277 28.631 -1.21384
30.6026 28.1863 -1.43455
30.0773 27.818 -1.91983
30.8253 28.3971 -1.31123
30.6667 28.2232 -1.53034
30.6258 28.1771 -1.58222
30.7751 28.3092 -1.45745
30.831 28.3625 -1.43378
30.8746 28.4136 -1.39051
30.4131 28.0271 -1.78105
30.4746 28.0633 -1.73906
30.3616 27.9918 -1.84463
30.7388 28.3251 -1.58715
30.7014 28.2764 -1.63762
30.5361 28.1071 -1.74313
28.2381 27.483 -1.25764
30.603 28.1936 -1.74914
30.7574 28.3333 -1.62228
30.4926 28.1218 -1.86149
30.5567 28.1311 -1.78968
30.9057 28.8302 -1.83016
30.9423 28.7245 -1.77499
30.6598 28.2034 -1.84995
30.9568 28.6977 -1.76735
30.9692 28.6878 -1.77351
30.9993 28.6504 -1.77542
31.0123 28.6255 -1.76799
31.0722 28.6143 -1.67123
31.0201 28.6195 -1.77206
31.0401 28.6918 -1.86611
30.8503 28.3788 -1.98209
31.021 28.5216 -1.84251
30.9483 28.4231 -1.98768
28.0819 26.9062 -1.57708
27.8536 27.4557 -1.4436
29.5889 27.3147 -1.53466
27.8894 27.142 -1.69945
28.4976 26.6634 -2.03336
28.5354 27.474 -1.19007
28.7358 28.4207 -1.52238
28.8534 28.2383 -0.781258
28.1893 27.7467 -1.27711
28.6494 28.3359 -0.942795
28.82 26.6683 -1.52603
29.0699 28.7491 -1.44596
29.3895 27.5119 -0.7644
27.9389 27.39 -1.39441
28.6708 26.565 -1.58586
28.2591 26.7621 -1.54401
29.233 27.1465 -1.15043
28.6526 26.5805 -1.57967
29.0456 26.8947 -1.61084
29.297 27.1019 -1.39531
29.041 27.0241 -1.18303
28.6814 28.5302 -1.45081
28.6937 26.5888 -1.89161
27.7298 27.5308 -1.62685
28.7579 27.3157 -1.17964
28.5734 28.4241 -1.36879
28.9391 26.7506 -1.84208
29.6465 28.1778 -1.17525
28.3029 27.2456 -1.25784
29.2377 27.0128 -1.55283
29.2512 28.0609 -0.672531
28.0796 27.835 -1.31062
29.5979 28.4115 -1.17986
29.6757 27.3647 -1.74405
29.1588 27.8478 -0.719444
29.3832 27.1989 -1.17184
27.9564 27.3019 -1.40314
28.2367 27.2002 -1.2959
27.9372 27.4919 -1.38323
27.9481 27.4434 -1.38469
27.946 27.3481 -1.3992
28.0614 27.6133 -1.31512
28.0931 27.7381 -1.3014
27.9298 27.2936 -1.42874
28.0865 27.8097 -1.30945
27.9667 27.2583 -1.41542
28.0867 27.3909 -1.32596
28.1413 27.5452 -1.28901
27.9994 27.2452 -1.39431
28.1829 27.7472 -1.2688
28.0403 27.1959 -1.38417
28.695 28.4216 -0.888165
28.1296 27.3438 -1.31573
28.1938 27.6042 -1.26454
28.0828 27.1828 -1.36369
28.2057 27.4967 -1.2663
28.2415 27.5823 -1.24802
28.266 27.9167 -1.2347
28.5932 28.2968 -1.00061
27.9971 27.1379 -1.4405
28.2453 27.7039 -1.26546
28.479 28.1944 -1.09891
28.5241 28.2516 -1.05825
28.0537 27.1418 -1.39318
28.6745 28.3411 -0.953804
28.1154 27.1636 -1.3554
28.8761 28.4471 -0.779739
28.2232 27.3882 -1.27698
28.2915 27.9061 -1.25034
28.5276 28.2724 -1.07021
28.1454 27.1456 -1.34344
28.1763 27.2222 -1.32111
28.8953 28.3931 -0.761574
28.2482 27.3705 -1.26904
28.293 27.4367 -1.24407
28.2643 27.6941 -1.27645
28.4804 28.2113 -1.12831
28.5351 28.281 -1.09406
28.2017 27.2057 -1.31241
28.9141 28.2432 -0.768822
28.2393 27.2775 -1.28507
28.2575 27.3409 -1.26822
28.2818 27.688 -1.27893
28.3322 27.7515 -1.24134
28.6841 28.3522 -0.982681
28.1906 27.1384 -1.32607
28.9482 28.1973 -0.758362
28.9462 28.3011 -0.744305
28.4271 28.1624 -1.1991
28.3386 27.5382 -1.25328
28.3384 27.6347 -1.25406
28.0495 27.0463 -1.45036
28.2227 27.0866 -1.32367
28.3473 27.3081 -1.24201
28.1983 27.0383 -1.35193
28.3333 27.2314 -1.25719
29.0308 28.2227 -0.725121
29.0503 28.3437 -0.716034
28.382 27.3763 -1.22218
29.0252 28.096 -0.736725
28.2498 26.9969 -1.34135
28.2935 27.0569 -1.30703
28.4049 27.2495 -1.23052
29.1336 28.2228 -0.693665
28.2286 26.923 -1.37847
28.3985 27.0898 -1.26113
28.4939 27.2903 -1.1982
28.3607 27.0063 -1.29447
28.4478 27.1465 -1.23667
28.4741 27.2184 -1.22103
28.4916 27.1959 -1.21497
28.5283 27.2781 -1.20454
29.2282 28.2411 -0.6754
28.5081 27.4023 -1.22639
28.2921 26.881 -1.36435
29.2366 28.8131 -0.731365
28.3993 26.9457 -1.29945
28.4936 27.0989 -1.23264
28.5376 27.192 -1.2047
29.2863 28.4935 -0.675411
28.396 26.8943 -1.31425
29.198 27.8857 -0.714142
28.5815 28.3665 -1.29132
29.0547 27.8737 -0.835934
28.5385 27.0828 -1.22824
28.5468 27.1463 -1.20973
29.2679 28.0369 -0.668205
28.2709 26.8209 -1.43147
28.4899 26.9934 -1.25423
29.3031 27.9906 -0.664524
28.6513 28.4865 -1.2973
28.5532 26.9977 -1.24065
28.3032 26.7949 -1.4411
28.5999 27.0488 -1.22205
28.4487 26.8076 -1.33418
28.5525 26.9104 -1.25781
28.6461 27.1028 -1.19474
28.6094 26.9603 -1.23671
28.4899 26.7886 -1.3373
28.6627 28.4998 -1.37978
28.5862 26.8871 -1.25711
28.6907 27.0874 -1.18547
28.6915 27.1707 -1.195
29.4583 28.21 -0.636677
28.6392 26.9358 -1.23649
29.5108 28.4833 -0.639027
28.7934 28.6422 -1.31587
28.7143 27.0635 -1.18466
28.8306 28.5913 -1.30056
28.7943 27.3624 -1.14969
28.3911 26.7711 -1.45797
28.7428 27.0445 -1.18183
28.8335 27.3507 -1.15314
28.6737 26.9198 -1.2346
28.356 26.7088 -1.50977
28.5284 26.7683 -1.3558
28.794 28.515 -1.36332
28.6452 26.8475 -1.2594
28.6947 26.8958 -1.24001
29.3806 27.6878 -0.721809
28.7848 27.1019 -1.1724
28.7456 26.9459 -1.21301
28.3998 26.7027 -1.48836
28.9015 27.2927 -1.1354
28.4737 26.7942 -1.45107
28.6465 26.7952 -1.30108
28.9527 27.3602 -1.10143
28.4378 26.6868 -1.49977
28.8457 27.0502 -1.16347
29.3603 27.6447 -0.792419
29.3191 27.4779 -0.814999
28.6503 26.7844 -1.3257
28.8392 26.9849 -1.19621
28.8862 27.1341 -1.18517
28.9876 27.34 -1.10906
29.0339 27.4766 -1.09512
28.5085 26.7143 -1.45672
28.7008 26.7491 -1.3078
28.9942 27.3364 -1.12207
28.7435 26.8339 -1.28181
29.421 27.5531 -0.757065
28.7913 26.887 -1.23637
28.9155 27.1013 -1.1576
28.3934 26.6444 -1.58385
29.2171 27.3256 -0.917824
28.8395 26.8952 -1.24112
28.9137 27.1114 -1.18408
28.4902 26.7419 -1.54235
28.7506 26.7978 -1.29493
28.8417 26.9462 -1.19618
28.9299 27.1028 -1.1777
29.1802 27.291 -0.977314
29.3259 27.3965 -0.862606
29.6024 27.7562 -0.67038
28.7364 26.7353 -1.33111
29.7485 28.0924 -0.62347
29.0513 27.1519 -1.11009
29.7899 28.1906 -0.616737
28.8949 26.8964 -1.24136
28.5916 26.6913 -1.49773
28.7584 26.6435 -1.32765
28.8562 26.8398 -1.29598
28.5437 26.6054 -1.55099
28.6522 26.6395 -1.45414
28.7352 26.6857 -1.3909
29.412 27.5492 -0.894985
28.838 26.7862 -1.3023
28.9512 26.944 -1.2393
28.5965 26.6024 -1.54594
29.3579 27.4078 -0.929226
29.3815 27.4889 -0.924393
28.8434 28.5418 -1.69975
28.7606 26.7281 -1.39557
28.847 26.7843 -1.33872
29.7844 27.9176 -0.657841
29.1277 27.1166 -1.11974
28.7105 26.6816 -1.43736
28.8901 26.8105 -1.29297
29.0965 27.0663 -1.16212
29.2398 27.1872 -1.06014
29.0674 28.7173 -1.57479
28.9496 26.8794 -1.28004
29.1546 28.7245 -1.49041
29.2562 28.7072 -1.40419
29.0118 26.9744 -1.23538
28.8942 26.8346 -1.33742
29.1657 28.7172 -1.49692
28.9641 26.9308 -1.27284
29.0394 26.999 -1.2056
29.4303 28.6932 -1.23719
29.0784 28.7365 -1.61383
28.9525 26.8622 -1.29297
28.4959 26.5899 -1.6456
29.2912 28.6918 -1.43429
29.2342 27.5792 -1.19837
28.9963 28.3531 -1.64291
28.796 26.7088 -1.4124
29.1001 28.7396 -1.64778
29.3642 28.7021 -1.34731
29.0055 28.5251 -1.67733
29.0881 26.9936 -1.25059
29.256 27.5589 -1.19815
29.4846 28.6219 -1.23837
29.8841 27.9591 -0.688782
29.5053 28.5915 -1.23547
29.7481 28.0395 -0.861816
29.2711 27.187 -1.11203
29.0613 28.4681 -1.67771
29.5398 28.5241 -1.21442
28.9955 26.8578 -1.35034
29.0083 26.8855 -1.33279
29.9408 28.0121 -0.671207
29.3493 28.6026 -1.45173
29.8414 27.9633 -0.772671
28.68 26.5877 -1.58392
28.7854 26.6624 -1.50585
29.1091 28.4106 -1.66602
28.8973 26.7542 -1.44234
29.3795 28.5885 -1.43869
29.0769 26.955 -1.30621
29.7785 28.0258 -0.888966
28.5656 26.5619 -1.73967
28.8404 26.7041 -1.49526
29.4026 28.5546 -1.43219
29.1367 28.3825 -1.66647
29.1433 28.5826 -1.72728
29.1752 28.7186 -1.72532
28.9891 26.8441 -1.40192
29.5618 28.3162 -1.20666
29.425 28.5208 -1.42498
28.7449 26.6154 -1.5967
28.9431 26.7967 -1.44102
29.3469 28.5512 -1.54953
29.4599 28.4377 -1.38005
29.6002 28.2345 -1.17253
29.6847 28.1832 -1.06891
29.8068 29.2408 -1.26036
29.5494 28.2004 -1.23808
28.8969 26.7342 -1.48782
29.0494 26.8894 -1.39816
29.7114 28.1321 -1.05394
29.8254 29.2522 -1.29105
29.3836 28.4898 -1.52766
29.5777 28.1637 -1.23571
29.8136 28.0162 -0.925941
29.247 28.446 -1.69394
28.999 26.8357 -1.44332
28.7477 26.609 -1.64416
28.9731 26.8078 -1.46575
29.2803 28.5922 -1.71416
29.5066 28.1884 -1.34273
29.1794 28.0341 -1.64948
28.8219 26.6662 -1.5942
29.742 28.1141 -1.07648
29.8694 27.8667 -0.860043
29.5412 28.1556 -1.35175
29.0815 26.8987 -1.45519
29.1255 26.9514 -1.40622
29.8851 29.1746 -1.30772
28.7782 26.616 -1.66148
28.7008 26.5819 -1.74492
29.4982 28.1326 -1.44673
29.1879 27.0024 -1.39854
29.78 28.0662 -1.07944
29.9083 29.1366 -1.30859
28.8829 26.7313 -1.65102
29.7514 29.1679 -1.50899
29.1403 26.9543 -1.45092
29.7251 28.0827 -1.18095
28.8327 26.6818 -1.70041
28.9353 26.7775 -1.61165
29.5752 28.1315 -1.37026
29.2791 27.0963 -1.35293
29.8564 29.1245 -1.4171
29.9348 29.1238 -1.33125
28.9888 26.8315 -1.5973
28.9494 26.7801 -1.64395
29.7551 28.0323 -1.16848
29.2021 26.9996 -1.44255
29.8424 27.9419 -1.03948
29.3815 27.1901 -1.30798
29.9687 29.0684 -1.3323
28.7289 26.5933 -1.80063
28.631 26.7531 -1.97791
28.8922 26.7397 -1.69697
29.6179 27.521 -1.16028
29.0181 26.9132 -1.60456
28.7262 26.5921 -1.83902
28.7455 26.6636 -1.82896
28.8505 26.6881 -1.75462
29.1549 26.9558 -1.49839
29.9259 29.0338 -1.43236
29.7227 28.024 -1.278
29.248 27.0446 -1.44468
29.2023 26.9921 -1.48914
29.9517 29.0013 -1.43874
28.7227 26.5925 -1.88154
29.1277 26.9166 -1.54419
29.1576 26.9447 -1.5456
29.8638 29.0658 -1.56421
28.9314 26.7895 -1.74725
29.1183 26.9251 -1.57838
29.3102 27.1101 -1.43527
28.911 26.7447 -1.79175
29.0087 26.843 -1.68344
29.0811 26.9748 -1.65473
29.7679 27.9527 -1.26053
29.1799 26.9665 -1.5537
29.2285 27.0077 -1.51077
29.9929 28.9471 -1.44738
29.0426 26.8357 -1.6914
29.0948 26.8894 -1.64537
29.8138 29.0424 -1.6722
28.855 26.6952 -1.83969
29.8772 27.8211 -1.1118
28.8044 26.6487 -1.88943
29.4343 27.2 -1.39412
29.8715 27.664 -1.08257
29.9334 28.9804 -1.58011
29.5397 27.3013 -1.34203
28.8396 26.6865 -1.88607
29.1113 26.9637 -1.68656
29.1019 26.8829 -1.69629
29.2996 27.0657 -1.54554
30.0421 28.8885 -1.46191
29.0018 26.7906 -1.79161
29.9003 28.8643 -1.62636
29.4021 27.1655 -1.48856
29.7673 27.529 -1.2297
29.1084 26.8882 -1.74949
29.3127 27.0743 -1.58677
28.8 26.6592 -1.98946
29.9344 28.8369 -1.64487
29.2074 26.9931 -1.68358
30.0894 28.84 -1.4818
29.1702 26.9304 -1.71436
29.4124 27.1711 -1.53847
29.2034 27.0074 -1.72587
29.3181 27.0816 -1.62359
30.0985 27.9535 -1.09194
30.0296 28.8973 -1.62969
30.121 28.7764 -1.47146
28.8884 26.6909 -1.99118
28.9998 26.7843 -1.89462
29.1428 26.8888 -1.79804
30.1071 27.9788 -1.12436
30.1633 28.0292 -1.09594
30.1765 28.0052 -1.09263
29.0443 26.8069 -1.90738
30.2401 28.6747 -1.37409
29.6373 27.3617 -1.4888
29.0992 26.8497 -1.88541
30.2416 28.072 -1.08633
29.1477 27.1356 -1.98866
29.2903 27.0488 -1.79596
28.9592 26.7455 -2.03962
29.1515 26.8919 -1.90458
29.7081 27.4165 -1.49075
28.991 26.7457 -2.0456
29.1022 26.8448 -1.94886
29.2395 27.0262 -1.86452
29.1995 26.9426 -1.8969
29.6105 27.3259 -1.57521
29.0458 26.7942 -2.04257
29.6292 27.3116 -1.58283
29.3084 27.0811 -1.87718
29.4195 27.1668 -1.78371
29.6923 27.3638 -1.56769
30.2695 27.9536 -1.16424
29.1861 26.8957 -1.9763
29.4312 27.1814 -1.84233
29.0548 26.7924 -2.09998
30.2441 27.917 -1.24099
30.0532 27.7145 -1.38519
29.4962 27.2337 -1.83798
29.5594 27.2768 -1.80166
29.6077 27.3255 -1.75657
29.5038 27.2531 -1.87514
29.7218 27.4171 -1.70733
29.6382 27.3466 -1.83101
29.6988 27.3925 -1.83467
29.9151 27.5732 -1.68865
30.2271 27.8629 -1.46097
28.8239 26.6643 -1.86739
29.8863 27.5524 -1.79882
30.2632 27.8838 -1.52678
30.2827 27.8636 -1.53201
30.2467 27.8553 -1.63325
30.5246 28.1129 -1.44588
30.576 28.1685 -1.40285
30.3175 27.9155 -1.62556
30.1813 27.8477 -1.87309
30.3171 27.9298 -1.79987
28.2642 27.0183 -1.31846
30.4762 28.0607 -1.79755
30.4926 28.0746 -1.82973
30.5007 28.1726 -1.92693
30.5688 28.2075 -1.87389
30.5936 28.1921 -1.89003
30.7129 28.2744 -1.77585
30.6186 28.1687 -1.89964
30.6274 28.1801 -1.91933
30.8229 28.3013 -1.91629
30.781 28.2645 -2.00114
28.7797 28.4054 -0.817177
28.2167 26.9659 -1.36779
28.7842 26.785 -2.10381
28.9021 26.7328 -1.52708
29.6714 27.3581 -1.69193
28.2097 27.9644 -1.31964
28.8235 27.7629 -1.15827
28.2975 27.6424 -1.27701
28.6273 27.5465 -1.17105
28.3532 27.4506 -1.21673
29.0683 27.5126 -1.06593
28.6951 27.9898 -1.22433
29.0403 26.8056 -1.85395
28.5963 26.5662 -1.7118
28.4389 26.6331 -1.55494
27.8176 27.4529 -1.484
28.164 27.4104 -1.28901
27.9482 27.6411 -1.36953
27.9376 27.5276 -1.3758
28.0313 27.6822 -1.32605
28.4664 28.2874 -1.03577
27.8867 27.3379 -1.44672
28.0503 27.4446 -1.33411
28.1597 27.8425 -1.28421
28.4181 28.2274 -1.10337
28.7279 28.36 -0.890873
28.3177 28.1017 -1.22534
27.8788 27.2596 -1.50925
27.9243 27.2083 -1.47479
28.22 27.7808 -1.29607
28.668 28.3366 -0.973473
28.4629 28.2246 -1.16056
28.088 27.1397 -1.37677
28.2028 27.2496 -1.29939
28.4293 28.1571 -1.23944
28.2818 27.2836 -1.26428
28.3473 27.3344 -1.23397
28.3864 27.4301 -1.21404
28.0004 27.0512 -1.5136
28.4997 28.3043 -1.29364
28.1483 26.9975 -1.38463
29.0614 28.0057 -0.711151
28.1724 26.998 -1.37907
28.2386 27.038 -1.32763
28.1036 26.9529 -1.4614
28.1061 26.9537 -1.47136
28.6315 27.8367 -1.15629
28.5383 28.3045 -1.34518
27.9518 27.0533 -1.68966
29.1054 27.9448 -0.722385
27.9974 26.9815 -1.61159
28.1481 26.9062 -1.45597
28.5536 27.6739 -1.22714
28.04 26.9421 -1.59075
28.5899 27.6056 -1.19234
28.6253 27.5374 -1.15672
28.6998 28.4929 -1.34609
28.5107 27.1687 -1.21332
28.2114 26.8639 -1.44701
28.3038 26.8612 -1.36166
28.3571 26.9061 -1.31975
28.7654 28.5768 -1.31041
28.5927 27.1929 -1.18517
28.661 27.5121 -1.17511
28.7167 27.7521 -1.17793
28.745 27.8863 -1.18242
28.1416 26.8536 -1.55325
28.7422 27.5066 -1.10634
28.7626 27.8529 -1.17107
28.78 27.821 -1.161
28.7114 28.5454 -1.40983
28.5943 27.0943 -1.20435
28.189 26.8294 -1.53159
28.7361 28.5474 -1.4434
28.6376 27.1472 -1.1838
28.6674 28.4579 -1.46986
28.6808 28.4547 -1.48425
28.4858 26.8856 -1.28922
28.8149 28.6372 -1.4261
28.9659 28.7182 -1.29469
28.6881 27.2415 -1.21393
28.7601 28.5499 -1.47654
28.9077 28.693 -1.39407
28.8755 27.6752 -1.13594
28.1063 26.8353 -1.69497
28.8237 28.6678 -1.46374
28.895 27.6543 -1.14022
28.7367 28.3902 -1.49363
28.845 28.6503 -1.47542
28.4284 26.7707 -1.37889
28.816 27.315 -1.14665
28.8058 28.5049 -1.49371
28.8826 27.5193 -1.14477
28.8392 27.2919 -1.15058
28.184 26.7645 -1.67889
28.3494 26.6877 -1.54812
28.8422 28.4934 -1.52954
28.9296 27.4521 -1.13416
28.9856 27.5069 -1.10732
28.9088 27.3345 -1.13428
28.9863 28.6664 -1.47023
29.1275 28.7982 -1.3627
29.0102 27.4647 -1.09628
28.3774 26.6731 -1.53888
29.3663 27.5435 -0.75848
28.9309 27.1854 -1.1473
29.0842 27.4883 -1.06299
28.5085 26.8658 -1.49044
28.6441 26.7661 -1.3109
28.5928 26.8454 -1.3975
28.8712 27.1836 -1.22582
28.5889 26.879 -1.43789
29.0713 27.3911 -1.10131
28.5503 26.7516 -1.44914
29.1579 27.3117 -0.986706
29.0605 27.2547 -1.09382
28.5635 26.8162 -1.48363
29.0707 27.2509 -1.10347
28.9973 27.1158 -1.15459
28.3483 26.6441 -1.68474
28.542 26.7544 -1.54221
28.3783 26.623 -1.69062
28.581 26.8344 -1.55111
28.402 26.6087 -1.6903
28.7446 26.7087 -1.34673
29.2838 28.6881 -1.47142
28.6183 26.6552 -1.46185
29.3027 28.6503 -1.46711
29.2475 28.6111 -1.55618
28.9501 26.9536 -1.20882
29.3172 28.6356 -1.47394
28.9311 26.891 -1.25578
28.5471 26.5914 -1.57622
29.1598 28.7219 -1.72759
29.349 28.5935 -1.48164
28.9936 26.9431 -1.25286
28.4448 26.6037 -1.75143
29.2664 28.6221 -1.58706
28.7272 26.6603 -1.44983
29.2926 27.2019 -1.05656
29.3118 28.5473 -1.58495
29.2347 28.5938 -1.71548
29.4088 28.491 -1.47977
29.3604 27.1928 -0.998688
29.3523 28.5113 -1.6059
29.3346 27.148 -1.05904
29.394 27.144 -0.997211
28.662 26.5655 -1.56982
29.2895 28.4968 -1.7038
29.3229 27.1736 -1.0688
29.3768 27.1796 -1.00774
29.3475 27.1573 -1.08507
29.0613 26.9364 -1.33459
29.3333 28.4071 -1.68472
29.4183 27.1115 -0.998543
29.3558 28.3674 -1.67992
28.5964 26.5724 -1.74942
29.4607 27.0936 -1.03655
29.5164 28.0075 -1.4227
28.7674 26.6194 -1.65876
29.1602 26.9838 -1.38208
29.4874 27.372 -1.17981
28.648 26.5757 -1.84522
28.7565 26.6726 -1.7566
29.6096 28.0678 -1.41639
29.2171 27.0384 -1.37151
28.9313 26.769 -1.59964
29.6725 27.5268 -1.11163
29.6354 27.4637 -1.15696
28.66 26.616 -1.95264
29.0281 26.836 -1.65326
28.9288 26.7549 -1.76511
29.0397 27.2184 -1.89841
29.5751 27.3471 -1.26654
28.9405 26.7593 -1.79498
29.0399 27.2722 -1.97864
28.8356 26.662 -1.90364
29.2231 26.9898 -1.65563
28.9158 26.732 -1.94367
29.0845 26.8586 -1.81083
29.7203 27.4286 -1.36747
28.9991 26.7762 -1.94953
29.1876 27.0942 -1.9424
29.5228 27.2567 -1.55907
29.2671 27.0274 -1.77446
29.3725 27.1186 -1.69116
28.9937 26.8206 -2.02632
29.0051 26.8133 -2.03284
29.08 26.8159 -1.9418
28.9839 26.7159 -2.0392
29.1947 27.0316 -2.0362
29.278 27.1866 -2.01247
29.766 27.4738 -1.60345
29.7181 27.4197 -1.65095
29.9414 27.6172 -1.47735
29.7816 27.4478 -1.6002
29.8369 27.5149 -1.57154
29.5832 27.3061 -1.85313
29.9169 27.5914 -1.5748
29.7296 27.4177 -1.8213
30.1326 27.7653 -1.78654
27.9097 27.702 -1.39231
27.8826 27.4084 -1.42776
28.3171 28.1715 -1.17683
27.7566 27.4907 -1.59388
28.2516 28.1256 -1.24826
28.3468 28.0893 -1.15425
27.8153 27.3918 -1.51741
27.8447 27.3466 -1.50207
28.2885 28.0376 -1.22661
28.1071 27.5417 -1.2988
27.8851 27.2822 -1.4781
27.9787 27.2878 -1.39054
28.0337 27.3272 -1.34796
27.7764 27.3611 -1.63438
27.8027 27.3169 -1.6134
27.9259 27.2322 -1.45952
27.8267 27.2788 -1.59708
27.8469 27.2472 -1.58399
27.9681 27.168 -1.45181
27.8864 27.1951 -1.55453
28.2178 27.3637 -1.26918
28.0073 27.1115 -1.44997
28.3171 27.607 -1.27112
28.3875 27.6276 -1.204
27.7766 27.2906 -1.75744
28.402 27.5988 -1.19865
28.4011 27.6375 -1.22906
27.8541 27.1929 -1.6968
27.9951 27.0478 -1.54589
28.467 27.5015 -1.20082
28.0434 26.9892 -1.54193
28.2431 27.0444 -1.31865
28.4856 27.4789 -1.20576
28.3627 27.1514 -1.25103
28.4648 27.3134 -1.2042
28.287 26.988 -1.31584
28.437 27.1971 -1.22696
28.2381 26.9409 -1.36809
27.8031 27.2486 -1.96426
27.9925 27.0046 -1.68615
28.1729 26.9228 -1.43383
27.9993 26.9925 -1.66412
27.8469 27.1972 -1.95319
28.259 26.9157 -1.36738
28.3171 26.952 -1.31689
28.0369 26.944 -1.68003
28.1458 26.882 -1.52882
27.8915 27.135 -1.92727
27.9501 27.0468 -1.87328
27.9763 26.9983 -1.84836
28.0062 26.941 -1.81065
28.3409 26.8254 -1.37494
28.4099 26.8388 -1.31806
28.1409 26.8402 -1.65868
28.0457 26.8934 -1.7992
28.705 27.0962 -1.16822
28.0935 26.8483 -1.80431
28.3573 26.7568 -1.48786
28.2209 26.7528 -1.65437
28.497 26.7579 -1.34734
28.548 26.8073 -1.30995
28.7909 27.1377 -1.1588
28.7968 27.1762 -1.19487
28.7118 26.9599 -1.21077
28.4448 26.796 -1.48452
28.5806 26.7896 -1.33509
